# .PCD v0.7 - Point Cloud Data file format
VERSION 0.7
FIELDS x y z rgb
SIZE 4 4 4 4
TYPE F F F F
COUNT 1 1 1 1
WIDTH 1030
HEIGHT 1
VIEWPOINT 0 0 0 1 0 0 0
POINTS 1030
DATA ascii
-1.5478696 -0.85407263 3.0079026 7.2827317e-39
-1.5623529 -0.86891705 3.0601821 6.4526137e-39
-1.5537012 -0.8710295 3.0676219 6.2685812e-39
-1.5634228 -0.8835597 3.1117513 7.0054287e-39
-1.5695013 -0.89421833 3.1492889 8.0192219e-39
-1.5625697 -0.89757866 3.1611235 8.6649501e-39
-1.5568908 -0.90172017 3.1757092 7.5596801e-39
-1.5518132 -0.90628195 3.1917751 6.3604209e-39
-1.540158 -0.90704674 3.1944687 7.4660425e-39
-1.528483 -0.90781283 3.1971667 1.2168381e-38
-1.5251683 -0.91360003 3.2175481 1.5581426e-38
-1.5095437 -0.91204959 3.2120876 1.6413342e-38
-1.5060922 -0.91789103 3.2326605 1.6781047e-38
-1.5090812 -0.92779493 3.2675402 1.68736e-38
-1.4660805 -0.90934891 3.2025764 1.6597377e-38
-1.4402884 -0.90134203 3.1743777 1.696472e-38
-1.4214451 -0.89757866 3.1611235 1.5854762e-38
-1.3713962 -0.87386215 3.0775979 1.5021395e-38
-1.3501244 -0.8682152 3.0577104 1.5667138e-38
-1.3360957 -0.86716449 3.0540099 1.6132433e-38
-1.3178532 -0.86333364 3.0405183 1.5580699e-38
-1.3008115 -0.86022443 3.0295682 1.4753086e-38
-1.282869 -0.85645449 3.0162911 9.771285e-39
-1.2531531 -0.84467614 2.9748096 5.1553883e-39
-1.2352554 -0.84071207 2.960849 4.509293e-39
-1.2246755 -0.8416996 2.9643269 4.6011271e-39
-1.2083865 -0.83874398 2.9539175 4.5089328e-39
-1.1694767 -0.81987065 2.8874488 4.4163799e-39
-1.1617457 -0.82269454 2.8973942 4.0483176e-39
-1.1369333 -0.81335634 2.8645065 3.772451e-39
-1.1027764 -0.7970711 2.8071527 3.5884199e-39
-1.0885582 -0.79500771 2.7998857 3.40403e-39
-1.0744134 -0.79295492 2.7926562 3.3118344e-39
-1.0583944 -0.78946048 2.7803493 3.2199961e-39
-1.0482652 -0.79033118 2.7834158 3.2199961e-39
-1.0434904 -0.7953018 2.8009214 3.5873381e-39
-1.0321229 -0.7953018 2.8009214 4.4152967e-39
-1.0226469 -0.7967757 2.8061123 5.612035e-39
-1.0157762 -0.80033535 2.8186488 6.1637668e-39
-1.0133915 -0.80755103 2.8440611 5.8871814e-39
-1.0124986 -0.81613547 2.874294 5.6109546e-39
-1.0008333 -0.81613547 2.874294 5.9797357e-39
-0.98208374 -0.81029058 2.8537092 6.7158588e-39
-0.97824526 -0.81675565 2.8764782 7.083198e-39
-1.5620053 -1.3869038 4.8844457 6.0780536e-39
-1.5654103 -1.4077936 4.9580164 4.1484432e-39
-1.5463008 -1.4087161 4.9612651 1.0325552e-38
-0.52328444 -0.94367903 3.3234816 3.8718661e-39
-0.5066821 -0.93791485 3.3031809 3.872585e-39
-0.50382739 -0.95797718 3.3738372 3.8729465e-39
-0.49013457 -0.95797718 3.3738372 3.9647806e-39
-0.46403444 -0.93302989 3.2859769 4.0569763e-39
-0.45845857 -0.94909531 3.3425567 4.2406501e-39
-0.44235384 -0.94367903 3.3234816 4.1488118e-39
-0.4275516 -0.94078809 3.3133001 4.2406472e-39
-0.41068956 -0.93302989 3.2859769 4.3328443e-39
-0.40294984 -0.94617116 3.3322582 4.333203e-39
-0.39428493 -0.95797718 3.3738372 4.2413661e-39
-0.39104795 -0.98429525 3.4665251 4.3332044e-39
-0.38599256 -1.0078298 3.5494096 4.6097885e-39
1.1556913 -0.82332474 2.8996134 1.0417031e-38
1.1656736 -0.82206529 2.8951781 1.0324833e-38
1.1724917 -0.81862181 2.8830507 1.032519e-38
1.1603321 -0.80212718 2.8249593 9.8649338e-39
1.1696151 -0.80063343 2.8196986 9.8642163e-39
1.1771133 -0.79795873 2.8102787 9.6794663e-39
1.1815017 -0.79324752 2.7936866 9.9546071e-39
1.1875814 -0.78975046 2.7813706 1.4834479e-38
1.1953565 -0.78743619 2.7732201 2.1741932e-38
1.2044058 -0.78599662 2.7681501 2.2385146e-38
1.2116532 -0.78341866 2.7590709 1.741309e-38
1.2197394 -0.78142524 2.7520504 7.2813192e-39
1.2189451 -0.77383041 2.7253027 3.5081563e-39
1.2181662 -0.76638174 2.6990697 3.6936336e-39
1.2156851 -0.75800455 2.6695666 2.6798404e-39
1.2107239 -0.74824256 2.6351864 4.0620588e-39
1.2058887 -0.73872882 2.6016808 2.8609806e-39
1.2106235 -0.73519182 2.5892239 1.2936423e-39
1.2148995 -0.73143953 2.576009 2.1252163e-39
1.219545 -0.72797185 2.5637965 3.6929063e-39
1.2274562 -0.72649574 2.5585978 2.4914736e-39
1.2315971 -0.72283149 2.5456929 1.3847589e-39
1.2373523 -0.72016776 2.5363119 1.2925619e-39
1.2385178 -0.71489882 2.5177555 1.477672e-39
1.245836 -0.71323848 2.5119081 1.4776748e-39
1.2481623 -0.70877045 2.4961724 1.6635136e-39
1.2570497 -0.7080701 2.4937057 2.7716717e-39
1.2751507 -0.7125293 2.5094104 3.5106829e-39
1.2806659 -0.70994085 2.5002942 3.3259315e-39
1.2908133 -0.70994085 2.5002942 3.2315736e-39
1.3001021 -0.70947224 2.4986439 2.6776698e-39
1.2927504 -0.70000029 2.4652851 2.0304913e-39
1.3031801 -0.70022827 2.4660883 1.5695089e-39
1.3187732 -0.703206 2.4765754 1.6609857e-39
1.3087037 -0.69255823 2.4390757 1.5684285e-39
1.3280152 -0.6975019 2.4564862 1.199646e-39
1.3405948 -0.69886243 2.461278 1.0159736e-39
1.3558735 -0.70159948 2.4709175 1.1081692e-39
-0.74415606 -0.33586529 1.2000144 1.4844578e-38
-0.7514345 -0.34138459 1.2197343 1.5120804e-38
-0.77069652 -0.35245743 1.2592965 1.5121884e-38
-0.80130583 -0.36890218 1.3180521 1.5029695e-38
-0.83552158 -0.38723943 1.3835692 1.4937141e-38
-0.76280212 -0.38738102 1.384075 1.2355651e-38
-1.5558982 -0.79600835 2.8440611 1.1525534e-38
-1.5443555 -0.79600835 2.8440611 9.95857e-39
-1.5362755 -0.79780656 2.850486 7.8373488e-39
-1.5322062 -0.80173069 2.8645065 6.1774673e-39
-1.5194308 -0.80112445 2.8623405 5.5317378e-39
-1.5187234 -0.80692083 2.8830507 5.7150487e-39
-1.524438 -0.81624585 2.9163678 6.5437303e-39
-1.5155208 -0.81782097 2.9219956 7.3749287e-39
-1.5460268 -0.84086275 3.0043218 7.0072266e-39
-1.5655168 -0.85823172 3.0663793 6.3618586e-39
-1.5555921 -0.85962439 3.0713553 6.2689441e-39
-1.5621387 -0.87021524 3.1091955 6.8217577e-39
-1.5695013 -0.88143682 3.1492889 7.7433553e-39
-1.5632224 -0.88511872 3.1624439 8.4812791e-39
-1.5581981 -0.88957775 3.1783757 7.8366285e-39
-1.5531229 -0.89408195 3.1944687 6.2689441e-39
-1.5421101 -0.89521509 3.1985173 7.4664027e-39
-1.5310693 -0.89635116 3.2025764 1.1707403e-38
-1.5271153 -0.90169114 3.2216556 1.5305196e-38
-1.5133963 -0.90130758 3.2202854 1.6412263e-38
-1.5048071 -0.90399921 3.2299023 1.6781049e-38
-1.5129992 -0.91690791 3.2760236 1.6781049e-38
-1.4710588 -0.89939481 3.2134511 1.6689577e-38
-1.4360735 -0.88585877 3.1650882 1.6873249e-38
-1.4079244 -0.87633342 3.1310549 1.6779969e-38
-1.3565077 -0.85202014 3.0441861 1.6316097e-38
-1.3355604 -0.84657377 3.0247266 1.5300143e-38
-1.3222281 -0.84589785 3.0223117 1.5484183e-38
-1.3026814 -0.8411966 3.0055144 1.5486341e-38
-1.2848727 -0.8375392 2.9924469 1.4382518e-38
-1.2682164 -0.83457035 2.9818397 6.7266782e-39
-1.2443522 -0.8267554 2.9539175 4.5096531e-39
-1.227574 -0.82354224 2.9424372 4.6933213e-39
-1.2198991 -0.826433 2.9527655 4.6014844e-39
-1.2036901 -0.82354224 2.9424372 4.5089314e-39
-1.1694767 -0.80815184 2.8874488 4.4167372e-39
-1.1630809 -0.81186748 2.9007244 4.1405119e-39
-1.1373637 -0.80203414 2.8655908 3.9561234e-39
-1.1060573 -0.78801566 2.8155041 3.5880626e-39
-1.0901709 -0.78480524 2.8040335 3.4036713e-39
-1.076001 -0.78277582 2.7967827 3.2196388e-39
-1.0611223 -0.78018194 2.7875149 3.6795323e-39
-1.0505826 -0.78075689 2.7895691 3.9557577e-39
-1.0442631 -0.78451467 2.8029954 4.6004082e-39
-1.0340356 -0.78538704 2.8061123 5.1525016e-39
-1.0249262 -0.78713751 2.8123665 6.072653e-39
-1.0180503 -0.79066199 2.8249593 7.1768384e-39
-1.0164461 -0.79840773 2.852634 7.9129601e-39
-1.0190759 -0.8096959 2.8929656 8.1895456e-39
-1.0111986 -0.81280178 2.9040625 7.2679508e-39
-0.99331611 -0.80784374 2.886348 6.8988109e-39
-0.99564636 -0.81940222 2.9276452 8.4639744e-39
-0.98414499 -0.8197192 2.9287779 9.7518224e-39
-1.5294429 -1.3385813 4.7826219 7.3687938e-39
-1.5382121 -1.3635613 4.8718729 3.5027095e-39
-1.5372344 -1.3804392 4.9321766 3.410881e-39
-1.5129701 -1.3949797 4.984128 6.3647411e-39
-0.51469862 -0.91492838 3.2689512 3.9640618e-39
-0.50646108 -0.92410558 3.3017404 3.9640618e-39
-0.50472707 -0.94597059 3.3798621 4.0566175e-39
-0.48991627 -0.94386375 3.3723345 3.9647806e-39
-0.46850803 -0.92856008 3.3176558 4.1488104e-39
-0.4635753 -0.94597059 3.3798621 4.1488118e-39
-0.44567981 -0.93718451 3.34847 4.2410088e-39
-0.43381676 -0.94092989 3.3618519 4.3328415e-39
-0.41068956 -0.91969365 3.2859769 4.3335617e-39
-0.40013203 -0.92612505 3.3089557 4.4253986e-39
-0.39132041 -0.93718451 3.34847 4.4253972e-39
-0.39594287 -0.98237097 3.509917 4.5175943e-39
-0.39793238 -1.0241538 3.6592028 4.5179544e-39
0.66889489 -1.2073927 4.3138981 1.4936792e-38
0.71907091 -1.2333959 4.406805 1.5397769e-38
0.80031008 -1.3394275 4.785645 1.5766549e-38
1.158798 -0.81373817 2.9074082 1.0601781e-38
1.1665659 -0.81093538 2.8973942 1.0509579e-38
1.1640693 -0.80112445 2.8623405 1.0233714e-38
1.1573092 -0.78860223 2.8175998 1.0141519e-38
1.1683097 -0.78830886 2.8165517 1.0140443e-38
1.1753681 -0.78538704 2.8061123 9.8642163e-39
1.1801953 -0.78104466 2.7905974 1.0323028e-38
1.1858388 -0.77731997 2.7772894 1.621489e-38
1.1936076 -0.77504539 2.7691627 2.1924521e-38
1.2026469 -0.77363056 2.7641077 2.1463194e-38
1.2094494 -0.77081639 2.7540526 1.4557917e-38
1.2170849 -0.76857966 2.7460613 4.6116158e-39
1.2145731 -0.76003379 2.7155275 3.2326512e-39
1.2147019 -0.75327915 2.6913939 3.6939909e-39
1.2118394 -0.74480641 2.6611216 2.8645904e-39
1.2086204 -0.7362662 2.6306083 3.877306e-39
1.2063034 -0.72842014 2.6025751 2.1226925e-39
1.2102096 -0.72443563 2.5883386 1.1088895e-39
1.2148995 -0.72098476 2.576009 2.3092488e-39
1.2199581 -0.71780968 2.5646648 3.5081535e-39
1.2274562 -0.7161116 2.5585978 2.2148853e-39
1.2311831 -0.71226025 2.5448372 1.2925647e-39
1.2381818 -0.71035004 2.5380123 1.4773147e-39
1.2405806 -0.70585418 2.5219491 1.5698719e-39
1.2491516 -0.70491487 2.5185931 1.4780378e-39
1.2498106 -0.69956231 2.4994688 1.7553505e-39
1.2587081 -0.69887012 2.4969957 2.6798362e-39
1.2755735 -0.70257765 2.5102422 3.5106857e-39
1.2806659 -0.69979334 2.5002942 3.6018009e-39
1.2903873 -0.69956231 2.4994688 3.0471782e-39
1.3009609 -0.69979334 2.5002942 2.5851126e-39
1.29655 -0.69202292 2.4725313 1.9386572e-39
1.3087219 -0.69315475 2.4765754 1.4773147e-39
1.3187732 -0.69315475 2.4765754 1.6613444e-39
1.3024098 -0.67937613 2.4273455 1.5691474e-39
1.3241484 -0.6855303 2.4493339 1.2918388e-39
1.3340892 -0.6855303 2.4493339 1.1074462e-39
1.3488299 -0.68797863 2.4580815 1.2000033e-39
-0.74297845 -0.33047119 1.1981153 1.5029325e-38
-0.74830002 -0.33503088 1.2146463 1.5029683e-38
-0.76534975 -0.34493682 1.25056 1.5030403e-38
-0.77123004 -0.34990743 1.2685809 1.4846019e-38
-0.83323747 -0.38058093 1.379787 1.4846022e-38
-0.8552255 -0.39326695 1.4257798 1.4938216e-38
-0.75864136 -0.37968138 1.3765256 1.2263101e-38
-0.76122051 -0.38379848 1.3914521 1.1156753e-38
-1.5356972 -0.78594184 2.8494132 7.7451532e-39
-1.5333666 -0.79070336 2.8666759 6.0852675e-39
-1.5194308 -0.78950757 2.8623405 5.6235705e-39
-1.5164136 -0.79401046 2.8786657 5.5313763e-39
-1.5220927 -0.80317211 2.911881 6.1756667e-39
-1.5131847 -0.80471969 2.9174917 7.0061462e-39
-1.5460268 -0.82866967 3.0043218 7.0065091e-39
-1.5686936 -0.84750307 3.0726018 6.5458925e-39
-1.5600221 -0.84957182 3.080102 6.3611411e-39
-1.5627805 -0.85794884 3.1104727 6.7299222e-39
-1.5721171 -0.87010312 3.1545379 7.5596829e-39
-1.5658387 -0.87374371 3.1677368 8.3890849e-39
-1.5588524 -0.87704641 3.1797106 8.1128567e-39
-1.5531229 -0.88111711 3.1944687 6.6384441e-39
-1.5421101 -0.88223386 3.1985173 7.3742085e-39
-1.5310693 -0.88335341 3.2025764 1.0785804e-38
-1.5277655 -0.88899428 3.2230272 1.4567986e-38
-1.5146848 -0.88899428 3.2230272 1.604384e-38
-1.5041654 -0.89051068 3.2285249 1.6596661e-38
-1.5084302 -0.90088332 3.2661307 1.6688862e-38
-1.4723086 -0.887106 3.2161813 1.6689577e-38
-1.4318832 -0.87046582 3.1558528 1.6781052e-38
-1.3918076 -0.8537398 3.0952129 1.6688133e-38
-1.3472981 -0.83396465 3.0235186 1.6594493e-38
-1.3270774 -0.82899863 3.0055144 1.650122e-38
-1.3138362 -0.82834095 3.00313 1.5669664e-38
-1.2944593 -0.82376629 2.9865446 1.5393067e-38
-1.2757959 -0.81956339 2.9713073 1.2350609e-38
-1.2597814 -0.81699824 2.9620073 6.0777089e-39
-1.239516 -0.81160027 2.9424372 4.5096531e-39
-1.2256685 -0.81034052 2.93787 4.7851582e-39
-1.217051 -0.81254768 2.9458718 4.6007669e-39
-1.1976391 -0.80752033 2.9276452 4.4170959e-39
-1.1690309 -0.79612947 2.886348 4.2327061e-39
-1.1617457 -0.79917622 2.8973942 3.7724496e-39
-1.1360736 -0.78950757 2.8623405 3.4040286e-39
-1.1035948 -0.77485991 2.8092358 3.128162e-39
-1.0897672 -0.77313864 2.8029954 3.2196402e-39
-1.0748099 -0.77057105 2.7936866 3.3118344e-39
-1.0603415 -0.76830298 2.7854638 4.2319872e-39
-1.0525217 -0.77085549 2.7947178 4.4163757e-39
-1.0450369 -0.77371156 2.8050725 3.9564821e-39
-1.0398166 -0.77832556 2.8218005 3.9557605e-39
-1.0329844 -0.78182238 2.8344779 4.9677474e-39
-1.0253193 -0.78476042 2.84513 6.072653e-39
-1.0222236 -0.79130256 2.8688483 7.0857203e-39
-1.0289049 -0.80565107 2.9208684 8.9256631e-39
-1.0338019 -0.81892061 2.9689767 1.2148188e-38
-1.017761 -0.81572169 2.9573791 9.8443781e-39
-1.0274308 -0.8332991 3.0211058 7.9104335e-39
-1.0200541 -0.83730853 3.0356419 9.4759572e-39
-0.99575603 -0.8273564 2.9995606 1.2054545e-38
-1.4963586 -1.290635 4.6791663 1.0503091e-38
-1.5024397 -1.3125377 4.7585735 6.4536871e-39
-1.5068039 -1.3334914 4.8345408 4.2413507e-39
-1.5073969 -1.3516165 4.9002528 2.6733103e-39
-1.5030749 -1.3657603 4.9515309 4.2409948e-39
-0.51181811 -0.92033827 3.336664 4.0566147e-39
-0.43736199 -0.90635741 3.2859769 4.2410116e-39
-0.42402577 -0.90635741 3.2859769 4.3328457e-39
-0.40785721 -0.90010667 3.263315 4.333203e-39
-0.39735332 -0.90635741 3.2859769 4.3335645e-39
-0.38619617 -0.91150045 3.3046229 4.4257602e-39
-0.3926661 -0.96011382 3.4808693 4.5175929e-39
-0.39793238 -1.0093029 3.6592028 4.5179544e-39
-0.34732491 -0.91509533 3.3176558 4.6097899e-39
0.22051312 -1.1349171 4.1146145 8.1150287e-39
0.23365675 -1.1179055 4.0529394 8.3908995e-39
0.24615251 -1.1002358 3.9888783 8.7596849e-39
0.26973137 -1.1312283 4.1012411 8.9440747e-39
0.31060562 -1.2269374 4.4482322 8.9447936e-39
0.65181041 -1.1594933 4.2037148 1.5398488e-38
0.71238154 -1.2349187 4.4771676 1.5766553e-38
0.74285257 -1.2557111 4.5525498 1.5950947e-38
1.1686715 -0.80877131 2.9321809 1.0785812e-38
1.163449 -0.79704106 2.889653 1.0601777e-38
1.1492957 -0.77948767 2.8260138 1.0325911e-38
1.1551597 -0.77572346 2.8123665 1.0325193e-38
1.1674411 -0.77630019 2.8144577 1.0416671e-38
1.1736281 -0.77285254 2.8019581 1.0140444e-38
1.1780242 -0.76830298 2.7854638 1.0783283e-38
1.1841012 -0.76492584 2.7732201 1.732087e-38
1.1918638 -0.76269084 2.7651172 2.2292223e-38
1.201331 -0.7615782 2.7610834 2.0080983e-38
1.2072536 -0.75825983 2.7490525 1.2347024e-38
1.215762 -0.75661141 2.7430763 3.1382878e-39
1.2119648 -0.74740428 2.7096961 3.3252084e-39
1.2121165 -0.740776 2.6856654 3.6014393e-39
1.2084414 -0.73194796 2.6536596 3.141536e-39
1.2061061 -0.72408026 2.6251354 3.4155991e-39
1.2063034 -0.71785754 2.6025751 1.6617088e-39
1.2106235 -0.71417493 2.5892239 1.1085336e-39
1.2136607 -0.70980543 2.5733824 2.4007298e-39
1.2178953 -0.70620477 2.5603282 3.5999918e-39
1.2253857 -0.70453697 2.5542817 2.2152483e-39
1.22953 -0.70098943 2.5414202 1.3844016e-39
1.2361099 -0.69887799 2.5337653 1.569153e-39
1.2393421 -0.69492429 2.5194311 1.7539044e-39
1.2491516 -0.69469309 2.5185931 1.5698733e-39
1.248574 -0.68873596 2.4969957 1.7553505e-39
1.2582932 -0.68850893 2.4961724 2.5876419e-39
1.2743059 -0.69170171 2.5077479 3.8787493e-39
1.2789763 -0.68873596 2.4969957 3.7854719e-39
1.2891104 -0.68873596 2.4969957 2.862424e-39
1.3018208 -0.69010162 2.5019467 2.3081628e-39
1.2948586 -0.68109834 2.4693055 1.8464616e-39
1.305306 -0.68132055 2.4701111 1.569153e-39
1.3166198 -0.68198806 2.4725313 1.5695089e-39
1.294524 -0.66547084 2.4126484 1.569146e-39
1.3181781 -0.67254347 2.4382901 1.2918374e-39
1.3276464 -0.67232692 2.437505 1.1992817e-39
1.3414259 -0.67428076 2.4445887 1.1996418e-39
-0.74121892 -0.32483751 1.1952779 1.4661266e-38
-0.74531066 -0.3287825 1.209794 1.4937851e-38
-0.74950296 -0.33282447 1.224667 1.493857e-38
-0.75677419 -0.33829674 1.2448028 1.4846376e-38
-0.73836792 -0.33228695 1.222689 1.4754185e-38
-0.74179149 -0.33608639 1.2366695 1.4754183e-38
-0.74492496 -0.33980528 1.2503536 1.4846017e-38
-0.75394696 -0.36906204 1.3580073 1.244749e-38
-0.75534534 -0.37246937 1.370545 1.1986514e-38
-0.75690806 -0.37600893 1.3835692 1.0788331e-38
-1.5328128 -0.77292293 2.8440611 7.6525988e-39
-1.5310476 -0.77789068 2.8623405 6.1771044e-39
-1.5171365 -0.77671605 2.8580184 5.6235677e-39
-1.5146858 -0.78143597 2.8753858 5.623209e-39
-1.5203384 -0.79044211 2.908525 5.8997972e-39
-1.5120194 -0.79226834 2.9152448 6.7295579e-39
-1.5478696 -0.81744969 3.0079026 7.0983418e-39
-1.5621387 -0.84497774 3.1091955 6.7295593e-39
-1.5721171 -0.85730034 3.1545379 7.4671272e-39
-1.5671501 -0.86160839 3.1703899 8.3890821e-39
-1.5595075 -0.86450458 3.1810465 8.3894422e-39
-1.5531229 -0.86815226 3.1944687 7.0075867e-39
-1.5421101 -0.86925256 3.1985173 7.1901773e-39
-1.529775 -0.86961997 3.1998694 1.0139357e-38
-1.5271153 -0.87554079 3.2216556 1.3921536e-38
-1.5166217 -0.87703359 3.2271488 1.5675061e-38
-1.5035242 -0.87703359 3.2271488 1.641335e-38
-1.5045358 -0.88533598 3.2576983 1.6596306e-38
-1.4723086 -0.87405306 3.2161813 1.6873252e-38
-1.428311 -0.85551804 3.1479795 1.6781412e-38
-1.3861406 -0.83775282 3.0826104 1.6594132e-38
-1.3446132 -0.82005614 3.0174932 1.5025713e-38
-1.3244485 -0.81518257 2.9995606 1.6040592e-38
-1.3101983 -0.81389272 2.9948144 1.5950208e-38
-1.2903872 -0.80909199 2.9771492 1.6043476e-38
-1.2708085 -0.80434746 2.9596915 1.1338605e-38
-1.2553611 -0.8021524 2.9516144 5.339411e-39
-1.236153 -0.79748869 2.9344537 4.4174575e-39
-1.2218754 -0.79594618 2.9287779 4.3256206e-39
-1.212804 -0.79779792 2.9355917 4.4167372e-39
-1.1957895 -0.79440957 2.9231238 4.048675e-39
-1.1685853 -0.78411621 2.8852479 3.2203562e-39
-1.1586417 -0.78531331 2.889653 3.0359692e-39
-1.1335024 -0.77613008 2.8558621 3.0356104e-39
-1.1027764 -0.76289243 2.8071527 2.9437721e-39
-1.0881557 -0.76063615 2.7988505 3.1281634e-39
-1.0732257 -0.7581138 2.7895691 3.4043888e-39
-1.0607316 -0.75727671 2.786489 3.4040286e-39
-1.0521333 -0.75923276 2.7936866 2.8519338e-39
-1.0458119 -0.76289243 2.8071527 2.3927578e-39
-1.0429264 -0.76916665 2.8302395 3.4965844e-39
-1.0353101 -0.77205282 2.8408597 4.6007669e-39
-1.0299641 -0.77671605 2.8580184 4.4163757e-39
-1.0265024 -0.78292269 2.8808565 4.5078524e-39
-1.0409529 -0.80309165 2.9550705 5.1503352e-39
-1.0515336 -0.82071036 3.0199006 9.1993647e-39
-1.0372087 -0.81907678 3.0138896 1.3435318e-38
-1.0402995 -0.83132154 3.0589457 1.1040396e-38
-1.0328927 -0.83537185 3.0738492 9.5677899e-39
-1.010164 -0.82697785 3.0429626 1.1963071e-38
-1.0014367 -0.82998019 3.0540099 1.2700275e-38
-1.500067 -1.274796 4.6907625 1.4008331e-38
-1.5090792 -1.2989399 4.7796025 1.1799963e-38
-1.509696 -1.3163921 4.8438201 7.3760035e-39
-1.5132737 -1.3369206 4.9193573 4.88636e-39
-1.509988 -1.3518534 4.9743042 2.8584191e-39
-0.40706474 -0.85730034 3.1545379 4.4250413e-39
-0.39607733 -0.86124772 3.1690626 4.3332016e-39
-0.38792461 -0.87183088 3.2080045 4.333203e-39
-0.37650016 -0.87554079 3.2216556 4.4257602e-39
-0.38505355 -0.92764693 3.4133863 4.5175929e-39
0.21513475 -1.0909443 4.0142579 8.29942e-39
0.2304492 -1.0863363 3.9973025 8.7600394e-39
0.241321 -1.0627691 3.910584 8.7604023e-39
0.26275679 -1.085763 3.995193 9.2210203e-39
0.30347347 -1.1811256 4.3460913 9.2210217e-39
0.35448506 -1.3038789 4.7977762 9.6812824e-39
0.61726993 -1.1109724 4.087954 1.5399212e-38
0.68649739 -1.2032286 4.4274216 1.5675439e-38
0.73723209 -1.2591927 4.633348 1.6136057e-38
1.1875285 -0.8097288 2.9794927 1.1062401e-38
1.1563872 -0.78054661 2.8721132 1.0785815e-38
1.1428965 -0.76374197 2.8102787 1.050923e-38
1.151737 -0.76204479 2.8040335 1.0417036e-38
1.1661406 -0.76402557 2.8113222 1.023264e-38
1.1714604 -0.7600742 2.7967827 1.0140442e-38
1.1758611 -0.75560808 2.7803493 1.1151344e-38
1.1828015 -0.75284332 2.7701759 1.7689294e-38
1.1901251 -0.75037229 2.7610834 2.2569536e-38
1.1991445 -0.74900651 2.7560577 1.9805119e-38
1.2046292 -0.74547857 2.7430763 1.0595675e-38
1.2135636 -0.74413049 2.738116 2.954614e-39
1.2102323 -0.73535413 2.7058222 3.6025141e-39
1.2125466 -0.73013514 2.6866183 3.6025212e-39
1.2063272 -0.71991634 2.6490171 3.4177613e-39
1.2031857 -0.71169865 2.6187792 2.4003584e-39
1.2046469 -0.70632368 2.5990014 1.3847589e-39
1.2102096 -0.70342594 2.5883386 1.0166981e-39
0.54404479 -0.30819666 1.134046 2.1237687e-39
1.2356963 -0.68836427 2.5329177 1.569153e-39
1.2368724 -0.68333471 2.5144107 1.5695103e-39
1.2462494 -0.68288112 2.5127418 1.2932836e-39
1.2440605 -0.67614883 2.4879694 1.7553505e-39
1.2549828 -0.67659348 2.4896057 2.7716759e-39
1.270938 -0.67972279 2.5011201 3.7865537e-39
1.2751912 -0.67659348 2.4896057 3.784746e-39
1.2852952 -0.67659348 2.4896057 2.3081656e-39
1.2983881 -0.67815453 2.4953496 1.9386586e-39
1.2893914 -0.66824323 2.4588797 1.7535485e-39
1.3031801 -0.67020226 2.4660883 1.5695117e-39
1.3149019 -0.6710766 2.4693055 1.5695089e-39
1.2887741 -0.65276676 2.4019322 1.6609843e-39
1.3164821 -0.66179508 2.435153 1.3843932e-39
1.3250866 -0.66115707 2.4328055 1.1992817e-39
1.3371085 -0.66222107 2.4367206 1.1074448e-39
-0.74040067 -0.31963322 1.1939585 9.2235329e-39
-0.74376559 -0.32320112 1.207286 1.0790136e-38
-0.74063736 -0.32397604 1.2101808 1.318542e-38
-0.74261063 -0.32700777 1.2215054 1.4568712e-38
-0.73339337 -0.32511938 1.2144516 1.4754539e-38
-0.73376113 -0.3274833 1.2232817 1.4937853e-38
-0.73641157 -0.33090517 1.2360638 1.4937131e-38
-0.73632383 -0.33313513 1.2443936 1.4845294e-38
-0.73966211 -0.33695665 1.2586684 1.5029688e-38
-0.79125017 -0.36296457 1.3558185 1.4661986e-38
-0.80388683 -0.37134376 1.3871181 1.4476516e-38
-0.82019722 -0.3815501 1.425243 1.4107375e-38
-0.82293338 -0.38554198 1.4401542 1.3831147e-38
-0.75411415 -0.35582763 1.3291591 1.3370527e-38
-0.7402721 -0.3518129 1.3141626 1.3093937e-38
-0.7430644 -0.35570273 1.3286927 1.2632602e-38
-0.73948878 -0.35657886 1.3319653 1.2171266e-38
-0.74669427 -0.36270475 1.354848 1.1526259e-38
-0.7499187 -0.36697343 1.3707932 1.0420267e-38
-1.5258557 -0.76367527 2.852634 6.1771072e-39
-1.5137079 -0.76338762 2.8515596 5.6239292e-39
-1.5106696 -0.76772505 2.8677616 5.5313735e-39
-1.5472548 -0.80492222 3.0067079 6.9139506e-39
-1.5688487 -0.84274185 3.1479795 7.37457e-39
-1.5651838 -0.8476764 3.1664119 8.204688e-39
-1.5575441 -0.8505221 3.1770418 8.3897995e-39
-1.550506 -0.85374647 3.1890862 7.0997824e-39
-1.5388594 -0.85446638 3.1917751 6.9139506e-39
-1.5271932 -0.85518742 3.1944687 9.3095964e-39
-1.5238731 -0.86063451 3.2148156 1.3090338e-38
-1.5153298 -0.86320025 3.2243998 1.5397397e-38
-1.501604 -0.86283278 3.2230272 1.5952013e-38
-1.4987317 -0.86875021 3.245131 1.6689575e-38
-1.4704347 -0.85990417 3.2120876 1.6965442e-38
-1.4253477 -0.84099346 3.1414485 1.6965802e-38
-1.3771688 -0.81990057 3.0626581 1.6687413e-38
-1.3366222 -0.80300879 2.9995606 1.576257e-38
-1.3166238 -0.79826474 2.9818397 1.6130991e-38
-1.3019581 -0.79669583 2.9759791 1.6778168e-38
-1.2818182 -0.79171646 2.9573791 1.5767253e-38
-1.2633998 -0.78771639 2.9424372 1.0419173e-38
-1.2490307 -0.7861886 2.9367304 4.7869575e-39
-1.2313801 -0.78254604 2.9231238 4.3249031e-39
-1.2171668 -0.78103822 2.9174917 3.5887786e-39
-1.2057908 -0.78133935 2.9186163 3.4962257e-39
-1.1902746 -0.77893704 2.9096429 3.6802554e-39
-1.1672509 -0.77152425 2.881953 2.9441309e-39
-1.1555544 -0.77152425 2.881953 2.5764302e-39
-1.1317946 -0.76338762 2.8515596 2.6679069e-39
-1.1035948 -0.75205719 2.8092358 2.6675454e-39
-1.0877537 -0.74900007 2.7978163 2.7593809e-39
-1.0740172 -0.747343 2.7916265 3.3111155e-39
-1.0622957 -0.74706751 2.7905974 3.1270844e-39
-1.0536886 -0.74900007 2.7978163 2.8504975e-39
-1.0481437 -0.75317508 2.8134117 3.0345258e-39
-1.0456626 -0.75966799 2.8376653 3.5873381e-39
-1.0380367 -0.76252604 2.8483412 5.0610234e-39
-1.0334753 -0.76772505 2.8677616 5.797871e-39
-1.0335816 -0.77654952 2.9007244 6.0733803e-39
-1.054536 -0.80142117 2.9936302 7.1761209e-39
-1.0651292 -0.81890672 3.0589457 9.8422201e-39
-1.0493226 -0.81626832 3.0490901 1.3249119e-38
-1.0487745 -0.82557809 3.0838659 1.4723891e-38
-1.0409226 -0.82929385 3.0977459 1.2605201e-38
-1.0195895 -0.82222891 3.0713553 1.3066898e-38
-1.0087613 -0.8235653 3.0763474 1.2793549e-38
-1.5066012 -1.2612284 4.7111955 1.4839889e-38
-1.5196322 -1.2884896 4.8130264 1.4750946e-38
-1.5164877 -1.302567 4.8656111 1.373679e-38
-1.5191965 -1.3221097 4.938611 8.1153706e-39
-1.509988 -1.331665 4.9743042 3.5055905e-39
-0.38661405 -0.85590971 3.1971667 4.4254e-39
-0.37363827 -0.85590971 3.1971667 4.4261189e-39
-0.3305929 -1.2983948 4.8500261 5.1636853e-39
0.18569526 -0.9275946 3.4649386 8.3916212e-39
0.22804117 -1.0589311 3.9555333 8.7600436e-39
0.24069935 -1.044201 3.9005105 9.0369934e-39
0.26584309 -1.0821111 4.04212 9.3135775e-39
0.3100591 -1.1887356 4.4404054 9.4057689e-39
0.58985007 -1.0746523 4.0142579 1.5491762e-38
0.64806342 -1.1489763 4.2918882 1.6043861e-38
0.70974034 -1.2253895 4.577322 1.6227897e-38
1.3065234 -1.3017304 4.8624859 1.5858014e-38
1.3086081 -1.284407 4.7977762 1.5859094e-38
1.0658268 -0.7542963 2.8175998 1.2168748e-38
1.051818 -0.73648047 2.7510505 1.198436e-38
1.2205898 -0.82827717 3.0939481 1.1246791e-38
1.1926917 -0.80110443 2.9924469 1.0970561e-38
1.1916484 -0.79233551 2.9596915 1.0786534e-38
1.1505841 -0.75739694 2.8291819 1.0602147e-38
1.1521637 -0.75094265 2.8050725 1.0417037e-38
1.1652751 -0.75205719 2.8092358 1.0325196e-38
1.1710278 -0.74844688 2.7957499 1.0416673e-38
1.1754295 -0.74405074 2.7793286 1.115134e-38
1.1836677 -0.74214363 2.7722046 1.7320509e-38
1.1914287 -0.73997599 2.7641077 2.2754647e-38
1.2000182 -0.73835856 2.7580659 1.8055208e-38
1.2055027 -0.73487824 2.7450655 7.8316105e-39
1.2126863 -0.73248798 2.7361369 2.6783886e-39
1.2059222 -0.72179282 2.6961861 3.7869096e-39
1.210399 -0.71795756 2.68186 4.2471731e-39
1.2071719 -0.70966184 2.6508722 3.5070759e-39
1.2031857 -0.70107031 2.6187792 1.5695103e-39
1.2050606 -0.69601446 2.5998938 1.2000061e-39
0.534796 -0.30097923 1.1242784 3.508508e-39
0.54592562 -0.30464366 1.1379664 2.030857e-39
0.54758108 -0.30300406 1.1318419 1.4769588e-39
1.2356963 -0.67808437 2.5329177 1.5695117e-39
1.2360514 -0.67268312 2.5127418 1.5695103e-39
1.2462494 -0.67268312 2.5127418 1.4776762e-39
1.2432435 -0.66561383 2.4863353 1.6631549e-39
1.2562221 -0.66714752 2.492064 3.0486215e-39
1.2713581 -0.66979319 2.5019467 4.1553348e-39
1.2760303 -0.66692799 2.4912441 3.0468138e-39
1.2865645 -0.66714752 2.492064 1.8471818e-39
1.3001021 -0.66890895 2.4986439 1.8461042e-39
1.2906489 -0.6589058 2.461278 1.6613514e-39
1.305306 -0.66127056 2.4701111 1.4773161e-39
1.3089252 -0.65805006 2.4580815 1.5695089e-39
1.2802446 -0.63876277 2.3860354 1.5691474e-39
1.3097417 -0.64857411 2.4226851 1.3847547e-39
1.3170456 -0.64733124 2.4180424 1.1085266e-39
1.3319641 -0.64982182 2.4273455 1.0163323e-39
-0.73865336 -0.31404462 1.1911408 4.2438899e-39
-0.74151891 -0.31733984 1.2036393 5.0729275e-39
-0.73745465 -0.31769338 1.2049803 7.100867e-39
-0.7360788 -0.31921759 1.2107613 1.134186e-38
-0.73116487 -0.31921759 1.2107613 1.3555997e-38
-0.73022151 -0.32096279 1.2173808 1.3465964e-38
-0.73044872 -0.32324982 1.2260551 1.2910994e-38
-0.73584002 -0.32786918 1.243576 1.2724077e-38
-0.73904777 -0.33157268 1.2576231 1.3738228e-38
-0.77028257 -0.34798947 1.3198903 1.4108811e-38
-0.80065954 -0.36424589 1.3815494 1.4017333e-38
-0.8148284 -0.37330607 1.4159137 1.4016258e-38
-0.82028079 -0.37847319 1.4355121 1.3738595e-38
-0.72952348 -0.33900604 1.285817 1.3277614e-38
-0.73567492 -0.34432769 1.3060015 1.2724799e-38
-0.73724204 -0.34756529 1.3182815 1.2356016e-38
-0.73150963 -0.34738383 1.3175932 1.1618093e-38
-0.734083 -0.35117304 1.3319653 1.1065279e-38
-0.7427907 -0.3579748 1.3577638 1.0235518e-38
-1.5638757 -0.83412766 3.1637654 7.928464e-39
-1.5562381 -0.83692557 3.1743777 8.113577e-39
-1.5472472 -0.83903641 3.1823838 7.1923395e-39
-1.5362687 -0.84009576 3.1864018 6.8221165e-39
-1.523978 -0.84044951 3.1877434 8.6645871e-39
-1.5206445 -0.84579134 3.2080045 1.2168378e-38
-1.5114675 -0.84794712 3.2161813 1.5119727e-38
-1.4990513 -0.84830749 3.2175481 1.604241e-38
-1.4942484 -0.85302031 3.2354233 1.6781052e-38
-1.466701 -0.84471756 3.2039318 1.7057639e-38
-1.4177003 -0.82380009 3.1245937 1.6965442e-38
-1.3688625 -0.80260056 3.0441861 1.6965799e-38
-1.3271576 -0.78523505 2.9783206 1.6780686e-38
-1.3104304 -0.78246474 2.967813 1.6134224e-38
-1.2948323 -0.78032351 2.9596915 1.5116471e-38
-1.2753419 -0.77577442 2.9424372 1.4748424e-38
-1.2580216 -0.77247196 2.9299114 9.6805397e-39
-1.2442045 -0.77127802 2.9253829 4.1423125e-39
-1.2275884 -0.7683093 2.9141226 3.7720923e-39
-1.2152935 -0.76801366 2.9130015 3.58878e-39
-1.2020835 -0.76712817 2.9096429 3.5887814e-39
-1.1866263 -0.76477683 2.9007244 3.58878e-39
-1.1641488 -0.75780851 2.874294 2.8515751e-39
-1.1546752 -0.75924975 2.8797607 2.759741e-39
-1.1275477 -0.74899346 2.8408597 2.6675482e-39
-1.1031854 -0.74038112 2.8081939 2.7593837e-39
-1.0877537 -0.73764509 2.7978163 3.21928e-39
-1.0740172 -0.73601311 2.7916265 4.6000495e-39
-1.0626873 -0.73601311 2.7916265 4.8777126e-39
-1.0544679 -0.73819065 2.7998857 4.9691921e-39
-1.0497041 -0.74286103 2.8175998 6.0730188e-39
-1.0468398 -0.74899346 2.8408597 5.8879072e-39
-1.0392096 -0.75181454 2.8515596 4.6904416e-39
-1.0342588 -0.75665939 2.8699358 4.6000467e-39
-1.0383557 -0.7683093 2.9141226 4.41674e-39
-1.060828 -0.79398072 3.011492 4.4156568e-39
-1.0703186 -0.81042123 3.0738492 6.2548793e-39
-1.0531399 -0.80681795 3.0601821 7.7285632e-39
-1.0517734 -0.81538707 3.092684 9.0178601e-39
-1.0443411 -0.81940377 3.107919 1.0583742e-38
-1.0237427 -0.81306213 3.0838659 1.2608083e-38
-1.012877 -0.81438905 3.0888987 1.2702437e-38
-1.5047286 -1.240564 4.7053394 1.5302668e-38
-1.5157778 -1.2657372 4.8008184 1.5121165e-38
-1.5087308 -1.276258 4.840723 1.5489946e-38
-1.5073969 -1.2919531 4.9002528 1.3647478e-38
-1.4981757 -1.3012174 4.9353914 4.9814507e-39
-1.4888214 -1.3106155 4.9710379 3.2275659e-39
-1.4725137 -1.3140669 4.984128 4.7023415e-39
-0.40491024 -0.88282508 3.34847 4.5175957e-39
-0.39890686 -0.89994025 3.4133863 4.5172355e-39
-0.40039793 -0.93580288 3.5494096 4.4257602e-39
-0.44145957 -1.0702775 4.0594587 4.6101528e-39
0.19129851 -0.94109738 3.5694911 8.6689256e-39
0.21312051 -0.97464234 3.6967239 8.8529581e-39
0.23727651 -1.0137469 3.8450437 9.1288317e-39
0.26612726 -1.0668453 4.0464406 9.5898099e-39
0.31281111 -1.181105 4.4798169 9.6827174e-39
0.59970742 -1.0760472 4.0813427 1.5861266e-38
0.67644018 -1.181105 4.4798169 1.6505202e-38
0.98623621 -0.68009114 2.5795197 1.1984719e-38
1.0537932 -0.71904451 2.7272661 1.170849e-38
1.0976816 -0.74120593 2.8113222 1.1338992e-38
1.2072688 -0.80681795 3.0601821 1.1431186e-38
1.1898699 -0.78709286 2.9853671 1.1247149e-38
1.2188071 -0.7981078 3.0271454 1.0970562e-38
1.1530181 -0.74010664 2.8071527 1.0601425e-38
1.164843 -0.74038112 2.8081939 1.0601424e-38
1.1693006 -0.73601311 2.7916265 1.050851e-38
1.1745671 -0.73223317 2.7772894 1.1519401e-38
1.1832345 -0.73062503 2.7711899 1.7873324e-38
1.1909939 -0.72849178 2.7630987 2.17405e-38
1.1995811 -0.72690004 2.7570615 1.4646131e-38
1.2046292 -0.7232129 2.7430763 5.5296008e-39
1.2096262 -0.71956295 2.7292325 2.7713045e-39
1.1973939 -0.70582306 2.6771183 3.7872725e-39
1.2052757 -0.70408028 2.6705081 3.6017981e-39
1.2046412 -0.697438 2.6453147 2.2156084e-39
1.2011083 -0.68924981 2.6142578 1.2000061e-39
1.2042335 -0.68499231 2.5981095 1.1996446e-39
0.53606969 -0.2971223 1.1269561 3.4159551e-39
0.54798478 -0.30115685 1.1422588 1.9390243e-39
0.55120689 -0.3003864 1.1393365 1.476963e-39
1.2364618 -0.662705 2.513576 1.3851205e-39
1.2466632 -0.662705 2.513576 1.2932878e-39
1.2407985 -0.65423387 2.4814458 1.8479063e-39
1.2549828 -0.65638524 2.4896057 3.6025141e-39
1.2688422 -0.6583336 2.4969957 4.3393589e-39
1.2722626 -0.65487778 2.4838881 2.7698668e-39
1.2815026 -0.65444839 2.4822593 2.3085257e-39
1.2949736 -0.65616947 2.4887872 2.6769453e-39
1.2827258 -0.64493299 2.4461682 2.6769439e-39
1.2968438 -0.6470235 2.4540975 2.8616953e-39
1.2929729 -0.64017558 2.428124 3.2301177e-39
1.2674621 -0.62279797 2.3622124 3.4145033e-39
1.2923722 -0.63027078 2.3905559 3.506699e-39
1.3074412 -0.63286859 2.4004092 3.5992519e-39
1.3230561 -0.63569027 2.4111116 3.6918105e-39
-0.73795676 -0.30891871 1.1900175 3.4130474e-39
-0.74057704 -0.31205794 1.2021103 3.505243e-39
-0.73675108 -0.3125045 1.2038306 3.8740213e-39
-0.7343173 -0.31355152 1.2078639 5.1654734e-39
-0.73163295 -0.31450486 1.2115364 7.9324255e-39
-0.72928333 -0.31561601 1.2158167 7.9338716e-39
-0.72785556 -0.31714392 1.2217026 5.9977704e-39
-0.73535687 -0.32261014 1.2427595 6.5476974e-39
-0.73904777 -0.32646859 1.2576231 9.1280904e-39
-0.76441884 -0.34002438 1.3098427 1.1065636e-38
-0.79847389 -0.35765985 1.3777782 1.1804641e-38
-0.80983037 -0.36530501 1.4072288 1.2081233e-38
-0.81888336 -0.37201229 1.4330666 1.2448579e-38
-0.7131719 -0.32630599 1.2569966 1.2356023e-38
-0.7283873 -0.3356688 1.2930642 1.2079793e-38
-0.73201609 -0.33978921 1.3089368 1.1618813e-38
-0.7282145 -0.34049565 1.3116581 1.1157835e-38
-0.7269212 -0.34239388 1.3189706 1.0696134e-38
-0.73345155 -0.34803274 1.3406925 9.497589e-39
-1.5651838 -0.82197446 3.1664119 7.5593228e-39
-1.5562381 -0.82404232 3.1743777 8.1124994e-39
-1.5433547 -0.82404232 3.1743777 7.2838163e-39
-1.5317559 -0.82473391 3.1770418 6.6373665e-39
-1.5194995 -0.82508016 3.1783757 7.9277438e-39
-1.511677 -0.82786053 3.1890862 1.0970555e-38
-1.5044374 -0.83101094 3.2012224 1.410557e-38
-1.490185 -0.83030879 3.1985173 1.5673621e-38
-1.4790783 -0.83136249 3.2025764 1.6504104e-38
-1.4519541 -0.82335186 3.1717179 1.6781054e-38
-1.4037956 -0.80316341 3.0939481 1.6597378e-38
-1.3584841 -0.78425413 3.0211058 1.6873242e-38
-1.3224753 -0.77041978 2.967813 1.6964719e-38
-1.3104304 -0.77041978 2.967813 1.6687769e-38
-1.2938207 -0.76771128 2.9573791 1.6409372e-38
-1.2758377 -0.7641294 2.9435811 1.4750579e-38
-1.2589961 -0.76116997 2.9321809 8.2043335e-39
-1.2456485 -0.76028663 2.9287779 3.6816973e-39
-1.2285341 -0.75706506 2.9163678 4.1412307e-39
-1.2162294 -0.75677353 2.9152448 4.140872e-39
-1.2030082 -0.75590032 2.911881 4.0483176e-39
-1.1857177 -0.75242758 2.8985033 3.7713706e-39
-1.1650335 -0.74671006 2.8764782 3.5873409e-39
-1.1551147 -0.7478466 2.8808565 3.4958655e-39
-1.1254362 -0.73608273 2.8355396 3.4962257e-39
-1.1027764 -0.72871369 2.8071527 3.6806169e-39
-1.0873518 -0.72602177 2.7967827 3.6806183e-39
-1.0728304 -0.72388244 2.7885418 4.1408748e-39
-1.0619042 -0.72414917 2.7895691 4.5085741e-39
-1.0544679 -0.72682726 2.7998857 4.4160169e-39
-1.0500948 -0.73169804 2.8186488 5.151417e-39
-1.0472327 -0.73774058 2.8419259 7.5449006e-39
-1.0384274 -0.73968416 2.8494132 8.648007e-39
-1.0342588 -0.74501169 2.8699358 7.2672319e-39
-1.037557 -0.75590032 2.911881 5.6113147e-39
-1.0650644 -0.78488052 3.0235186 4.0479519e-39
-1.0751202 -0.80152565 3.0876391 3.8632019e-39
-1.0574141 -0.79762208 3.0726018 4.6022033e-39
-1.0560876 -0.80612832 3.1053696 5.3368942e-39
-1.0582424 -0.8175295 3.1492889 5.5201995e-39
-1.0321512 -0.80712152 3.1091955 7.8214833e-39
-1.4982105 -1.2161763 4.684957 1.4936049e-38
-1.5033846 -1.2360635 4.7615666 1.5305916e-38
-1.4943982 -1.2446744 4.7947378 1.5767608e-38
-1.4881331 -1.2558088 4.8376298 1.4753829e-38
-1.4769933 -1.2630725 4.8656111 7.3778266e-39
-1.465724 -1.2704208 4.8939176 4.5190292e-39
-1.4543227 -1.2778549 4.9225559 5.1633224e-39
-0.42920867 -0.92139751 3.5494096 4.4254e-39
-0.44128451 -0.9802199 3.7760053 4.7016268e-39
-0.42788014 -0.9846397 3.7930315 4.6097913e-39
-0.43863723 -1.0470649 4.0335059 4.6097913e-39
-0.43621102 -1.0816406 4.1666985 4.701631e-39
0.19413595 -0.94035447 3.6224358 8.3908897e-39
0.21469297 -0.96671957 3.7239995 8.5749237e-39
0.23812306 -1.0017028 3.8587618 8.7589576e-39
0.26987755 -1.0652254 4.1034636 9.0355417e-39
0.31580094 -1.1740388 4.522635 9.1280918e-39
0.70133978 -1.2057306 4.6447182 1.6140024e-38
0.41904771 -0.32213423 1.2409261 1.5489234e-38
0.44062275 -0.33469701 1.2893206 1.521229e-38
0.46485502 -0.34895968 1.3442633 1.4935705e-38
1.2065815 -0.70670295 2.7223628 3.234096e-39
1.1944373 -0.69324195 2.6705081 4.2482465e-39
1.2035775 -0.69226521 2.6667457 3.1393668e-39
1.201702 -0.68502647 2.6388605 1.3854792e-39
0.53390789 -0.30166399 1.1620708 1.1085322e-39
0.53903782 -0.30189568 1.1629633 1.2007278e-39
0.53094268 -0.29224399 1.125783 3.2315596e-39
0.53767037 -0.29342204 1.1303211 3.7843747e-39
0.5493108 -0.2972385 1.1450227 2.7695039e-39
0.55471295 -0.29764363 1.1465834 2.7687808e-39
1.2768974 -0.64205843 2.4733391 4.6137682e-39
1.2907305 -0.64395177 2.4806325 4.4300958e-39
1.2769495 -0.63214564 2.435153 4.2453444e-39
1.2893209 -0.63336802 2.4398618 4.3371827e-39
1.2778097 -0.62292898 2.3996484 4.5208523e-39
1.2118783 -0.58631885 2.2586191 4.4286511e-39
1.2802448 -0.61474538 2.3681235 4.3368142e-39
1.3000219 -0.61959046 2.3867877 4.336454e-39
1.318019 -0.62352186 2.4019322 4.2446185e-39
-0.73656744 -0.30351651 1.187777 3.2286575e-39
-0.73858339 -0.30635223 1.1988742 3.2290177e-39
-0.73511463 -0.30693546 1.2011567 3.1368192e-39
-0.73338127 -0.30825594 1.2063242 3.3212077e-39
-0.73304057 -0.31018347 1.2138674 3.7821858e-39
-0.72788066 -0.31008402 1.2134782 4.2435297e-39
-0.72726876 -0.31193393 1.2207177 4.0598573e-39
-0.73632383 -0.31798393 1.2443936 4.0591371e-39
-0.74101722 -0.32222089 1.2609745 4.7037848e-39
-0.76481581 -0.33488217 1.3105229 5.4417086e-39
-0.79847389 -0.3520681 1.3777782 6.3647481e-39
-0.80877811 -0.35912645 1.4054002 7.4718215e-39
-0.81795442 -0.36578071 1.4314408 8.6696472e-39
-0.71198976 -0.32067201 1.2549131 9.5916007e-39
-0.71953899 -0.32640699 1.2773563 1.0420636e-38
-0.72698849 -0.33217964 1.2999469 1.023624e-38
-0.72482395 -0.3336117 1.3055511 9.6830677e-39
-0.72301638 -0.33523032 1.3118855 9.5905091e-39
-0.72829276 -0.34018186 1.3312627 8.8522196e-39
-1.5658387 -0.80946201 3.1677368 7.1905389e-39
-1.5575441 -0.81183982 3.1770418 7.6522373e-39
-1.5414159 -0.81013995 3.1703899 7.2834562e-39
-1.5259926 -0.8087852 3.1650882 6.545531e-39
-1.5144134 -0.80946201 3.1677368 7.2823758e-39
-1.5059677 -0.81183982 3.1770418 1.0047883e-38
-1.4974724 -0.81423157 3.1864018 1.3275452e-38
-1.4839158 -0.81388903 3.1850612 1.4844219e-38
-1.4672854 -0.81183982 3.1770418 1.5766896e-38
-1.4386942 -0.8030777 3.1427524 1.6320791e-38
-1.3935448 -0.78483337 3.0713553 1.6504823e-38
-1.3445344 -0.76406562 2.9900832 1.6502665e-38
-1.3162835 -0.7548241 2.9539175 1.5671819e-38
-1.3083788 -0.75718755 2.9631667 1.5765091e-38
-1.2923064 -0.7548241 2.9539175 1.5764379e-38
-1.2748464 -0.75159836 2.941294 1.1891438e-38
-1.2589961 -0.74926966 2.9321809 5.4316192e-39
-1.2456485 -0.74840009 2.9287779 4.3256206e-39
-1.2290076 -0.74551606 2.9174917 4.6011285e-39
-1.2171668 -0.74551606 2.9174917 4.5089328e-39
-1.2048619 -0.74522889 2.9163678 4.6007683e-39
-1.1843574 -0.73981422 2.8951781 4.3252605e-39
-1.1681402 -0.73699588 2.8841488 4.2327061e-39
-1.1529211 -0.73475665 2.8753858 3.9568395e-39
-1.1216553 -0.72214043 2.8260138 3.58878e-39
-1.0999216 -0.71546382 2.7998857 3.4962271e-39
-1.0853471 -0.71335334 2.7916265 2.8515779e-39
-1.0720408 -0.71204054 2.786489 2.6671867e-39
-1.0615131 -0.71256506 2.7885418 3.5873381e-39
-1.0540781 -0.71519935 2.7988505 5.6116735e-39
-1.0485333 -0.71918744 2.8144577 7.2683123e-39
-1.0460547 -0.72538966 2.8387291 9.1089781e-39
-1.0380367 -0.72784585 2.8483412 1.1317346e-38
-1.0350436 -0.7339204 2.8721132 1.1777964e-38
-1.037557 -0.74408239 2.911881 1.1686131e-38
-1.0676227 -0.77446526 3.030781 1.1502822e-38
-1.0799651 -0.79254985 3.101553 1.076634e-38
-1.0634564 -0.78963846 3.0901594 7.3608695e-39
-1.0630642 -0.79876721 3.1258838 5.4269305e-39
-1.0798025 -0.82114357 3.2134511 4.8755546e-39
-1.054674 -0.81183982 3.1770418 5.1521386e-39
-1.4871672 -1.1883379 4.6504245 1.5305199e-38
-1.4884069 -1.2046165 4.714129 1.5582506e-38
-1.4766301 -1.2106472 4.7377291 1.6320064e-38
-1.470283 -1.2213473 4.7796025 1.5490675e-38
-1.4619603 -1.2306706 4.8160882 8.852598e-39
-1.4479406 -1.2353859 4.8345408 5.0722058e-39
-1.4393489 -1.2449255 4.8718729 5.0707681e-39
-0.43930042 -0.92831779 3.632865 2.4892834e-39
-0.449581 -0.98303568 3.8469973 2.4892834e-39
-0.42852423 -0.97070456 3.7987409 2.4896449e-39
-0.42570946 -1.0003176 3.914628 2.5814804e-39
0.22178394 -0.98303568 3.8469973 3.1343067e-39
0.24119641 -0.99876833 3.9085653 3.0421111e-39
0.27988988 -1.0874729 4.2557001 3.0417509e-39
0.3173174 -1.1612331 4.5443521 2.949914e-39
0.753582 -1.2752895 4.9906993 5.5364237e-39
0.41255608 -0.31218562 1.2217026 1.6319355e-38
0.43057692 -0.32195279 1.2599252 1.5949496e-38
0.45185769 -0.33389959 1.3066777 1.5581077e-38
0.43868667 -0.32040647 1.2538739 1.5028256e-38
1.2014614 -0.68024409 2.6620572 4.0580721e-39
0.52894801 -0.29681101 1.1615359 3.4130572e-39
0.53325307 -0.2965835 1.1606455 3.5056144e-39
0.53845888 -0.29685655 1.1617141 3.7825628e-39
0.53332186 -0.28896403 1.1308275 4.336817e-39
0.54057586 -0.29039541 1.1364291 4.0602315e-39
0.5500595 -0.29299018 1.1465834 3.7832844e-39
0.55597597 -0.2936573 1.1491941 3.6910846e-39
1.289463 -0.63326162 2.4781966 3.1364703e-39
1.2720398 -0.61987001 2.4257901 3.0442761e-39
1.280654 -0.61927474 2.4234605 3.2283072e-39
1.0961092 -0.52599627 2.0584259 3.4126971e-39
1.1771128 -0.56059527 2.1938252 3.4130558e-39
1.23991 -0.58606917 2.2935143 3.3208616e-39
1.2894527 -0.60494506 2.367383 3.2286687e-39
1.3055928 -0.60798687 2.3792868 3.3212203e-39
-0.73231643 -0.29697201 1.180922 3.2286575e-39
-0.73370367 -0.29949465 1.1909534 3.2290177e-39
-0.73209471 -0.30081967 1.1962223 3.0449837e-39
-0.73140007 -0.30254054 1.2030654 3.1371808e-39
-0.73034728 -0.30413538 1.2094074 3.3208532e-39
-0.72671586 -0.30467075 1.2115364 3.2290163e-39
-0.73056704 -0.30837181 1.2262537 3.2290149e-39
-0.74070668 -0.31479624 1.2518008 3.1371794e-39
-0.75191271 -0.32176569 1.2795151 3.4137676e-39
-0.77406114 -0.33354723 1.3263649 3.5056045e-39
-0.79847389 -0.34647635 1.3777782 3.6903573e-39
-0.80653232 -0.35244125 1.4014977 3.7832746e-39
-0.81441283 -0.35841256 1.425243 4.2438941e-39
-0.71163589 -0.31542206 1.2542894 4.9814563e-39
-0.71543491 -0.31939062 1.2700706 6.0874395e-39
-0.72252232 -0.3248955 1.2919608 6.4569409e-39
-0.71961212 -0.32595232 1.2961634 5.7200947e-39
-0.7194013 -0.32825649 1.305326 7.3796147e-39
-0.72459781 -0.33308041 1.3245085 8.392689e-39
-1.5575441 -0.79894567 3.1770418 8.1128553e-39
-1.540126 -0.79660571 3.1677368 7.7451532e-39
-1.5177441 -0.79163724 3.1479795 7.0987048e-39
-1.5068475 -0.79262596 3.1519113 7.6511583e-39
-1.4990481 -0.79527467 3.1624439 9.7720165e-39
-1.4899474 -0.79727286 3.1703899 1.2907032e-38
-1.4776992 -0.79760689 3.1717179 1.4844581e-38
-1.4562854 -0.79295611 3.153224 1.5582869e-38
-1.4280241 -0.78446132 3.1194441 1.6596308e-38
-1.3879143 -0.76924753 3.0589457 1.6780693e-38
-1.332431 -0.74516147 2.9631667 1.659486e-38
-1.3111677 -0.73994851 2.9424372 1.5208323e-38
-1.3053135 -0.74341571 2.9562244 1.5391628e-38
-1.2902926 -0.74167806 2.9493146 1.4932096e-38
-1.2733623 -0.73879999 2.93787 8.9418957e-39
-1.2585087 -0.73708385 2.9310455 4.0501141e-39
-1.2461305 -0.73679858 2.9299114 4.6933199e-39
-1.2294813 -0.73395818 2.9186163 4.7851582e-39
-1.2185756 -0.73452455 2.9208684 4.7847995e-39
-1.2057908 -0.73395818 2.9186163 4.7851582e-39
-1.1816462 -0.7263974 2.8885505 4.5092902e-39
-1.1708163 -0.72695214 2.8907564 4.0490351e-39
-1.1507359 -0.72171628 2.8699358 3.5884199e-39
-1.1183158 -0.7085551 2.8175998 3.1278033e-39
-1.0974864 -0.70254153 2.7936866 2.9437721e-39
-1.0829512 -0.70047373 2.7854638 3.403307e-39
-1.0692859 -0.6989308 2.7793286 4.5993292e-39
-1.0587833 -0.69944435 2.7813706 5.9808189e-39
-1.0505826 -0.70150608 2.7895691 6.6258282e-39
-1.0454243 -0.70566624 2.8061123 6.533271e-39
-1.0405923 -0.71014082 2.8239055 7.5449006e-39
-1.034146 -0.71360105 2.8376653 8.7409187e-39
-1.0342588 -0.72171628 2.8699358 8.4664884e-39
-1.0351682 -0.73057848 2.9051769 7.4570182e-39
-1.0697639 -0.76369339 3.0368595 7.3655512e-39
-1.0844076 -0.78317052 3.1143112 7.3651925e-39
-1.0695682 -0.78156304 3.107919 6.5386758e-39
-1.072809 -0.7932865 3.1545379 6.8131075e-39
-1.1022595 -0.82490796 3.280282 5.521647e-39
-1.0999073 -0.83321118 3.3133001 5.3365383e-39
-1.4871672 -1.1694641 4.6504245 1.5213003e-38
-1.4893343 -1.1862228 4.7170658 1.6043126e-38
-1.4766301 -1.191419 4.7377291 1.6688129e-38
-1.4684289 -1.2004335 4.7735753 1.5950571e-38
-1.4591756 -1.2088175 4.8069148 9.5894413e-39
-1.4414971 -1.2103544 4.8130264 5.3491542e-39
-1.430146 -1.2173194 4.840723 5.1626063e-39
-1.4551594 -1.2558625 4.9939914 6.7320901e-39
-0.45277056 -0.94158632 3.7442586 1.0145289e-39
-0.45095587 -0.97038102 3.8587618 1.0145303e-39
-0.42788014 -0.95385146 3.7930315 1.1067259e-39
-0.42417419 -0.98087972 3.9005105 1.1989229e-39
0.22246218 -0.97038102 3.8587618 1.478056e-39
0.24244808 -0.988006 3.9288483 1.4784147e-39
0.28665751 -1.096078 4.3586016 1.3858576e-39
0.32713538 -1.1781483 4.684957 1.4784133e-39
0.40093386 -0.30220437 1.2017287 1.8717169e-38
0.4119578 -0.30678177 1.2199309 1.7887767e-38
0.42730582 -0.31443229 1.2503536 1.7425708e-38
0.43576288 -0.31689209 1.2601349 1.6964729e-38
0.43810618 -0.31490037 1.2522148 1.6411548e-38
0.45889992 -0.32606399 1.2966074 1.5766537e-38
0.48622951 -0.34156576 1.358251 1.5212646e-38
0.52805686 -0.29160479 1.1595789 3.688921e-39
0.53202963 -0.29120335 1.1579827 3.5048899e-39
0.53788114 -0.29182827 1.1604676 3.4123355e-39
0.5394488 -0.2901383 1.1537474 3.0435544e-39
0.53459942 -0.28505579 1.1335366 2.9517175e-39
0.54302114 -0.28707594 1.1415697 2.767685e-39
0.55072677 -0.28868651 1.1479744 2.859882e-39
0.55614477 -0.28908101 1.149543 2.8606009e-39
1.2675723 -0.60788238 2.4172704 3.0439173e-39
1.086362 -0.51303893 2.0401216 3.2283044e-39
1.17575 -0.55105287 2.1912854 3.2283058e-39
1.2123646 -0.56394774 2.2425625 3.1364703e-39
1.2522532 -0.57816201 2.2990861 3.136829e-39
1.2933985 -0.59274209 2.3570645 3.2293834e-39
-0.73300248 -0.2924529 1.1820282 3.1368206e-39
-0.7306006 -0.29341492 1.1859164 3.1368206e-39
-0.72932905 -0.29484668 1.1917032 3.2286575e-39
-0.72896749 -0.29666787 1.1990641 3.2282974e-39
-0.72709513 -0.29789454 1.204022 3.2286575e-39
-0.72289836 -0.29817906 1.2051721 3.2290163e-39
-0.72226113 -0.29994571 1.2123123 3.137178e-39
-0.7359609 -0.30773139 1.2437803 3.137178e-39
-0.74548715 -0.31386745 1.2685809 3.2293764e-39
-0.76707304 -0.32520154 1.3143908 3.4130488e-39
-0.79731315 -0.34038904 1.3757752 3.5052458e-39
-0.80400211 -0.34566543 1.397101 3.5056059e-39
-0.81151021 -0.35137141 1.4201634 3.7818313e-39
-0.71081156 -0.30997202 1.2528365 3.8740269e-39
-0.70960194 -0.31167403 1.2597156 3.6903545e-39
-0.71219194 -0.31508175 1.2734888 3.598519e-39
-0.70418066 -0.31381485 1.2683684 3.4134075e-39
-0.71374059 -0.32041752 1.2950549 5.2576746e-39
-0.72094011 -0.32605064 1.3178226 8.3923303e-39
-1.4944046 -0.77339429 3.1258838 7.9281053e-39
-1.4835557 -0.77435344 3.1297605 9.8645723e-39
-1.4739 -0.77595729 3.1362431 1.2723e-38
-1.4635966 -0.77724522 3.1414485 1.4660188e-38
-1.4400911 -0.77148306 3.1181593 1.5767618e-38
-1.4060099 -0.75990301 3.0713553 1.6504474e-38
-1.3773408 -0.75106692 3.0356419 1.6872896e-38
-1.3195199 -0.72603136 2.9344537 1.6504825e-38
-1.3045764 -0.72434682 2.9276452 1.6319711e-38
-1.298721 -0.72772372 2.941294 1.6225711e-38
-1.2852857 -0.72687656 2.93787 1.5118644e-38
-1.2704045 -0.72518814 2.9310455 7.9270291e-39
-1.2570487 -0.72434682 2.9276452 4.4189022e-39
-1.2451668 -0.72434682 2.9276452 4.9691893e-39
-1.2285341 -0.7215566 2.9163678 4.692964e-39
-1.2190459 -0.72294903 2.9219956 4.692964e-39
-1.2053261 -0.72183466 2.9174917 4.5085713e-39
-1.1780504 -0.71249938 2.8797607 4.5085713e-39
-1.1717111 -0.71576649 2.8929656 3.9564793e-39
-1.1459575 -0.70712 2.8580184 3.4962229e-39
-1.1129314 -0.69376332 2.8040335 3.311833e-39
-1.0950619 -0.68967634 2.7875149 3.4962257e-39
-1.0801693 -0.68739849 2.7783086 4.2334264e-39
-1.0673268 -0.68639094 2.7742362 4.60149e-39
-1.0564545 -0.68664259 2.7752533 4.693687e-39
-1.0501957 -0.68993038 2.7885418 3.7735314e-39
-1.0438766 -0.69324976 2.8019581 2.6697076e-39
-1.0367254 -0.69608361 2.8134117 2.3016453e-39
-1.0295155 -0.69894063 2.8249593 2.7619046e-39
