# .PCD v0.7 - Point Cloud Data file format
VERSION 0.7
FIELDS x y z rgb
SIZE 4 4 4 4
TYPE F F F F
COUNT 1 1 1 1
WIDTH 1030
HEIGHT 1
VIEWPOINT 0 0 0 1 0 0 0
POINTS 1030
DATA ascii
-0.41057071 0.41619095 1.1141856 1.6594489e-38
-0.40231866 0.41236767 1.1039503 1.6778882e-38
-0.39952773 0.41411883 1.1086383 1.6687401e-38
-0.39007187 0.41363427 1.1073411 1.6963987e-38
-0.38563412 0.41369477 1.1075031 1.650373e-38
-0.38281929 0.41551828 1.1123848 1.6503728e-38
-0.36420602 0.42008579 1.1246125 1.6411894e-38
-0.36087468 0.42152593 1.1284678 1.6595922e-38
-0.3603228 0.42629144 1.1412256 1.6872507e-38
-0.35229245 0.4222182 1.1303211 1.6964346e-38
-0.35447919 0.43044406 1.1523426 1.6871792e-38
-0.32350811 0.39808804 1.0657222 1.6872151e-38
-0.33143353 0.42488244 1.1374536 1.705618e-38
-0.32721043 0.42539373 1.1388223 1.6964345e-38
-0.32113931 0.42348269 1.1337063 1.6687764e-38
-0.3175844 0.42488244 1.1374536 1.7056546e-38
-0.31543231 0.42822796 1.1464099 1.7240217e-38
-0.31158164 0.42933315 1.1493685 1.6780312e-38
-0.30589524 0.42790398 1.1455425 1.6871433e-38
-0.29808879 0.4234193 1.1335366 1.7240574e-38
-0.29718137 0.42874733 1.1478003 1.6780315e-38
-0.28988609 0.42488244 1.1374536 1.6780681e-38
-0.28276321 0.42114928 1.1274595 1.6872519e-38
-0.27896464 0.436692 1.1690689 1.6963992e-38
-0.20958126 0.42121202 1.1276275 1.7333134e-38
-0.20521872 0.42165163 1.1288043 1.7426043e-38
-0.20196237 0.42443606 1.1362586 1.7793748e-38
-0.19755839 0.42488244 1.1374536 1.7609718e-38
-0.19294199 0.42488244 1.1374536 1.7425323e-38
-0.18777159 0.43427786 1.1626061 1.742569e-38
-0.16915749 0.43494579 1.1643941 1.7702276e-38
-0.16448236 0.4350796 1.1647525 1.7702633e-38
-0.15889958 0.43274942 1.1585143 1.7794836e-38
-0.15509959 0.4352805 1.1652902 1.7610802e-38
-0.14892612 0.43110022 1.1540992 1.8071061e-38
-0.14365093 0.42933315 1.1493685 1.8162899e-38
-0.13848163 0.42777455 1.145196 1.7885951e-38
-0.13446435 0.42978987 1.1505913 1.7794836e-38
-0.13054857 0.43228638 1.1572746 1.7979588e-38
-0.12625703 0.43367848 1.1610014 1.8164334e-38
-0.12299743 0.43886057 1.1748744 1.8255807e-38
-0.11731888 0.43548158 1.1658286 1.8347282e-38
-0.11281317 0.43635511 1.1681671 1.8255805e-38
-0.10887852 0.43961099 1.1768833 1.8163614e-38
-0.096566521 0.40778911 1.0916929 1.7979583e-38
-0.099728756 0.44139495 1.1816592 1.8348004e-38
-0.095966473 0.44620028 1.1945236 1.8347645e-38
-0.091060996 0.44591886 1.1937702 1.8807543e-38
-0.077185519 0.39921194 1.0687311 1.8808626e-38
-0.081307001 0.44556758 1.1928298 1.8624596e-38
-0.076213703 0.4440982 1.1888962 1.8716426e-38
-0.070241384 0.43696192 1.1697916 1.8993736e-38
-0.049125534 0.41884145 1.1212813 1.9362156e-38
-0.044727143 0.42027307 1.1251138 1.9545106e-38
-0.040280562 0.42152593 1.1284678 2.0006801e-38
-0.035647511 0.42089856 1.1267884 1.9822415e-38
-0.031157883 0.42202917 1.1298151 1.9729865e-38
-0.026580432 0.42215517 1.1301523 1.9822421e-38
-0.021977277 0.42184031 1.1293095 1.9822774e-38
-0.017388757 0.42171451 1.1289726 2.0006449e-38
-0.012747863 0.419774 1.1237777 1.9361445e-38
-0.008156714 0.41822204 1.1196231 1.9638747e-38
-0.0036757512 0.42552173 1.139165 1.9914259e-38
0.0058214259 0.44465682 1.1903917 1.9546554e-38
0.010400818 0.43414453 1.1622491 1.936252e-38
0.015057734 0.43241856 1.1576285 1.9178127e-38
0.019892877 0.43541455 1.1656491 1.9453991e-38
0.024368566 0.43090317 1.1535716 1.9821693e-38
0.028966507 0.42965928 1.1502417 1.9545828e-38
0.033310894 0.42552173 1.139165 1.9546192e-38
0.037617259 0.4219662 1.1296465 1.8993379e-38
0.042007651 0.42002338 1.1244454 1.96355e-38
0.046502177 0.41940048 1.1227778 9.1277247e-39
0.050983388 0.41877943 1.1211152 2.4910869e-39
0.055451352 0.4181602 1.1194575 7.6500681e-39
0.059941519 0.41778955 1.1184652 1.8348364e-38
0.064347751 0.41692725 1.1161567 1.8993379e-38
0.068624772 0.41539621 1.112058 1.9545831e-38
0.072700262 0.41290954 1.1054009 1.9453997e-38
0.076861121 0.41116858 1.1007402 1.9453637e-38
0.080289565 0.40591609 1.0866787 1.9729861e-38
0.084699884 0.40591609 1.0866787 1.899121e-38
0.089263946 0.40661645 1.0885537 1.8900456e-38
0.092827663 0.40290889 1.0786281 1.8900819e-38
0.09777645 0.40527621 1.0849657 1.9269963e-38
0.10339482 0.41009533 1.097867 1.9453634e-38
0.10860651 0.41296983 1.1055623 1.9086292e-38
0.11322574 0.41345283 1.1068554 1.917813e-38
0.11698252 0.4108699 1.0999405 1.9730224e-38
0.12134088 0.41051203 1.0989826 1.9086292e-38
0.12622254 0.4118872 1.102664 1.9637665e-38
0.13168237 0.40125105 1.0741899 1.9546195e-38
0.13817897 0.40755403 1.0910636 1.9454357e-38
0.14262764 0.40761277 1.091221 1.9454e-38
0.14733246 0.40837798 1.0932695 2.0006454e-38
0.15289554 0.41140783 1.1013807 1.9637672e-38
0.1569773 0.41039291 1.0986636 1.9546195e-38
0.16048142 0.4079656 1.0921655 1.9361805e-38
0.16570283 0.409917 1.0973896 1.9545831e-38
0.16971382 0.40885028 1.0945339 1.9822066e-38
0.17440817 0.40944222 1.0961186 1.9545472e-38
0.17982006 0.41164738 1.1020219 1.9361798e-38
0.18351798 0.409917 1.0973896 1.9177413e-38
0.19693641 0.41003588 1.0977079 1.9268528e-38
0.20668566 0.41170731 1.1021824 1.9545115e-38
0.21220928 0.4137553 1.1076651 1.9453638e-38
0.2158521 0.41212729 1.1033068 1.9454357e-38
0.22322512 0.41754282 1.1178046 1.8992664e-38
0.22526729 0.41296983 1.1055623 1.9453279e-38
0.22825433 0.41027382 1.0983448 1.9913181e-38
0.23551369 0.41521326 1.1115682 1.94522e-38
0.24048403 0.41600728 1.1136938 1.9636952e-38
0.24504003 0.41606846 1.1138577 1.9545472e-38
0.25062999 0.41785127 1.1186304 1.9545832e-38
0.30949995 0.42386353 1.1347258 1.9084491e-38
0.31010807 0.41846958 1.1202857 1.9176327e-38
0.31544828 0.41952491 1.1231109 1.917741e-38
0.31910703 0.41834578 1.1199542 1.9544039e-38
0.32236484 0.41668153 1.1154989 1.9174897e-38
0.3270849 0.41692725 1.1161567 1.8715353e-38
0.33161485 0.41692725 1.1161567 1.8807553e-38
0.33649206 0.41735795 1.1173097 1.8807194e-38
0.34132892 0.41772783 1.1183 1.8992657e-38
0.34556133 0.41735795 1.1173097 1.899194e-38
0.35066521 0.41803658 1.1191266 1.8807906e-38
0.3534829 0.41600728 1.1136938 1.8623876e-38
0.51118094 0.43886057 1.1748744 1.6965432e-38
0.52160043 0.43561575 1.1661878 1.687216e-38
0.52665788 0.43588433 1.1669067 1.6963994e-38
0.5311482 0.43568286 1.1663674 1.687072e-38
0.53745514 0.43696192 1.1697916 1.705475e-38
0.54069901 0.43574998 1.1665471 1.6962915e-38
0.54602236 0.4362205 1.1678067 1.6687409e-38
0.54637945 0.43274942 1.1585143 1.622751e-38
0.55015528 0.43202221 1.1565675 1.6504098e-38
0.54922771 0.42764515 1.1448497 1.6503379e-38
0.55387414 0.42764515 1.1448497 1.650266e-38
-1.0450226 0.65342724 1.7304894 1.2078335e-38
-1.0074881 0.6473605 1.7144227 1.244604e-38
-0.99379712 0.64750713 1.7148111 1.2722627e-38
-0.6463266 0.42408308 1.1231109 1.2722983e-38
-0.63377684 0.41880223 1.1091255 1.2722983e-38
-0.62597412 0.41660509 1.1033068 1.2722983e-38
-0.62014067 0.41569638 1.1009002 1.2907014e-38
-0.6100837 0.41192278 1.0909065 1.2999212e-38
-0.6033957 0.41038531 1.0868348 1.2907014e-38
-0.59539491 0.40792581 1.0803212 1.3090686e-38
-0.59042066 0.40751877 1.0792432 1.2906657e-38
-0.58670962 0.40798402 1.0804753 1.3183602e-38
-0.58482838 0.4097383 1.0851213 1.3183961e-38
-0.58184206 0.41073909 1.0877717 1.3275797e-38
-0.57909143 0.41192278 1.0909065 1.3276159e-38
-0.57740951 0.41389084 1.0961186 1.3644582e-38
-0.57529306 0.41557553 1.1005801 1.3644223e-38
-0.57299203 0.4171522 1.1047556 1.3828612e-38
-0.57050633 0.41861826 1.1086383 1.3921526e-38
-0.56775278 0.41990954 1.112058 1.3736422e-38
-0.56448323 0.42083675 1.1145136 1.0507424e-38
-0.56086814 0.42151934 1.1163212 4.7019743e-39
-0.55773556 0.42257857 1.1191266 4.7041253e-39
-0.55425864 0.42339221 1.1212813 1.124714e-38
-0.55117726 0.42452392 1.1242784 1.465622e-38
-0.5490604 0.42642364 1.1293095 1.4565822e-38
-0.54766309 0.42891884 1.1359175 1.4473989e-38
-0.54633176 0.43150854 1.142776 1.4382513e-38
-0.54473603 0.43393201 1.1491941 1.4291393e-38
-0.54221189 0.43565133 1.1537474 1.4475066e-38
-0.54041183 0.43798745 1.1599343 1.4566542e-38
-0.53702062 0.43906376 1.1627847 1.4659097e-38
-0.53369486 0.44021314 1.1658286 1.4659098e-38
-0.5294525 0.44062024 1.1669067 1.4842766e-38
-0.52471656 0.44062024 1.1669067 1.5211547e-38
-0.52174985 0.44211942 1.170877 1.5027875e-38
-0.51216608 0.43798745 1.1599343 1.4936044e-38
-0.50452113 0.43545225 1.1532202 1.484457e-38
-0.49688894 0.4328807 1.1464099 1.50286e-38
-0.48890477 0.42995098 1.138651 1.567253e-38
-0.48479393 0.4304041 1.1398511 1.5580696e-38
-0.4796623 0.42995098 1.138651 1.5580694e-38
-0.47525549 0.43014506 1.139165 1.5672887e-38
-0.47027835 0.4298217 1.1383086 1.5673605e-38
-0.46440166 0.42866158 1.1352363 1.5766159e-38
-0.46103865 0.4298217 1.1383086 1.5857997e-38
-0.45676216 0.43014506 1.139165 1.604203e-38
-0.44849473 0.42667821 1.1299837 1.622642e-38
-0.44245583 0.42528176 1.1262854 1.5858716e-38
-0.43736425 0.42477623 1.1249466 1.5950557e-38
-0.4312607 0.42326683 1.1209491 1.5949834e-38
-0.42785156 0.42439789 1.1239446 1.6042033e-38
-0.42247465 0.42358041 1.1217797 1.6042751e-38
-0.41026884 0.42040354 1.1133662 1.6133867e-38
-0.40027586 0.41473147 1.0983448 1.6502651e-38
-0.39818662 0.41721308 1.1049169 1.6411171e-38
-0.38882074 0.4167873 1.1037893 1.6595565e-38
-0.38495836 0.41745678 1.1055623 1.6780316e-38
-0.38119504 0.41825077 1.1076651 1.6411177e-38
-0.37620419 0.41770077 1.1062084 1.677888e-38
-0.35803664 0.41745678 1.1055623 1.6872152e-38
-0.35693768 0.4214572 1.1161567 1.6872151e-38
-0.33517826 0.4060716 1.0754106 1.6872153e-38
-0.32764888 0.40218684 1.0651225 1.687179e-38
-0.32442147 0.40354943 1.0687311 1.705582e-38
-0.31976801 0.40315107 1.0676761 1.6687758e-38
-0.32769185 0.42465004 1.1246125 1.7056182e-38
-0.3251076 0.42725214 1.1315036 1.7055104e-38
-0.31970307 0.42616937 1.1286361 1.6872151e-38
-0.31587592 0.42718831 1.1313345 1.6781035e-38
-0.31179687 0.42789164 1.1331972 1.6872512e-38
-0.30937418 0.43092313 1.1412256 1.6871795e-38
-0.30277994 0.42814797 1.1338761 1.6962914e-38
-0.29662323 0.42591539 1.1279634 1.714838e-38
-0.2949456 0.43014506 1.139165 1.7056179e-38
-0.28759602 0.42610586 1.1284678 1.6781035e-38
-0.28188169 0.42439789 1.1239446 1.6872153e-38
-0.26431239 0.41825077 1.1076651 1.7148023e-38
-0.2230372 0.41672656 1.1036284 1.7516805e-38
-0.21644413 0.41269585 1.0929538 1.7241296e-38
-0.21389191 0.41636238 1.102664 1.733349e-38
-0.21089105 0.41929364 1.1104269 1.7517882e-38
-0.20705247 0.42065099 1.1140215 1.7241656e-38
-0.20291935 0.4214572 1.1161567 1.7149461e-38
-0.2002493 0.42540833 1.1266207 1.7793755e-38
-0.18611394 0.43512088 1.1523426 1.7425331e-38
-0.14647007 0.42859733 1.135066 1.8254733e-38
-0.14241853 0.43027455 1.1395079 1.8255093e-38
-0.13783529 0.4304041 1.1398511 1.7978865e-38
-0.13421957 0.4336687 1.1484967 1.8254733e-38
-0.12955837 0.4336687 1.1484967 1.8347286e-38
-0.12633452 0.43865952 1.1617141 1.8347285e-38
-0.12263584 0.44232464 1.1714205 1.8255805e-38
-0.11697663 0.43892893 1.1624275 1.8163968e-38
-0.11237967 0.43940118 1.1636783 1.8440199e-38
-0.10133326 0.41359144 1.0953256 1.8255451e-38
-0.096274987 0.41097528 1.0883971 1.8440206e-38
-0.091202132 0.40804225 1.0806296 1.8347651e-38
-0.086458497 0.40636021 1.076175 1.8624593e-38
-0.081834897 0.4050934 1.0728199 1.8532036e-38
-0.077491805 0.4051508 1.0729721 1.8623516e-38
-0.073407613 0.40664923 1.0769404 1.8716073e-38
-0.069501489 0.40938625 1.0841888 1.8716786e-38
-0.065656014 0.41287464 1.0934273 1.8716788e-38
-0.061520401 0.41491207 1.0988231 1.8993373e-38
-0.04895876 0.42195484 1.1174747 1.9546187e-38
-0.044587992 0.42351764 1.1216135 1.9821697e-38
-0.040190704 0.42515528 1.1259505 1.954655e-38
-0.035621006 0.42515528 1.1259505 1.954655e-38
-0.031157883 0.42661455 1.1298151 2.0006452e-38
-0.026588371 0.42686936 1.1304899 1.9729866e-38
-0.021960897 0.42610586 1.1284678 1.9822419e-38
-0.017355114 0.42547166 1.1267884 1.9822778e-38
-0.012727083 0.42364317 1.1219459 1.9453639e-38
-0.008125471 0.42114675 1.1153345 1.936216e-38
-0.0036175095 0.4233295 1.1211152 1.9545831e-38
0.00095592201 0.43393201 1.1491941 1.9822418e-38
0.010326311 0.43571773 1.1539233 1.9454355e-38
0.01494122 0.43373451 1.148671 1.954691e-38
0.019728851 0.43651614 1.1560377 1.9361437e-38
0.024140513 0.43150854 1.142776 1.9361078e-38
0.028562929 0.42827627 1.1342158 1.9453993e-38
0.032919586 0.42509207 1.125783 1.9545831e-38
0.037305545 0.42301628 1.1202857 1.9177046e-38
0.041728757 0.4217681 1.1169801 1.9636585e-38
0.046227947 0.4214572 1.1161567 1.0974174e-38
0.050698105 0.42096069 1.1148418 2.8605953e-39
0.05514963 0.42040354 1.1133662 5.1636769e-39
0.059606895 0.41997123 1.1122214 1.6506978e-38
0.063951768 0.41886359 1.109288 1.9361803e-38
0.068074815 0.41654438 1.103146 1.9453635e-38
0.071819432 0.41233867 1.0920079 1.9454355e-38
0.0759774 0.41085717 1.0880843 1.9545827e-38
0.079888232 0.40827537 1.0812469 1.9453631e-38
0.084072389 0.40728652 1.0786281 1.9268162e-38
0.088690102 0.40839201 1.0815558 1.9361442e-38
0.092603378 0.40630245 1.076022 1.899338e-38
0.102621 0.41144848 1.0896504 1.9453991e-38
0.10810136 0.41551512 1.1004201 1.9177769e-38
0.11274771 0.41618052 1.1021824 1.954619e-38
0.11607189 0.41210091 1.0913782 1.9730578e-38
0.12024127 0.41121176 1.0890235 1.9270683e-38
0.12405439 0.40921044 1.0837233 1.9638028e-38
0.12698042 0.40452018 1.0713019 1.9545116e-38
0.13164501 0.40549561 1.0738852 1.9177057e-38
0.13715118 0.40891775 1.0829482 1.9545471e-38
0.14187105 0.40985578 1.0854324 1.9546548e-38
0.14642325 0.41026753 1.0865228 1.9822063e-38
0.15172569 0.41269585 1.0929538 1.9821706e-38
0.15551044 0.41097528 1.0883971 2.0373801e-38
0.15990473 0.41091621 1.0882407 1.9267812e-38
0.16510455 0.41287464 1.0934273 1.9637666e-38
0.16929774 0.41227922 1.0918504 1.9546192e-38
0.1747117 0.41461119 1.0980263 1.9545831e-38
0.18008219 0.41672656 1.1036284 1.9545474e-38
0.18343821 0.41419068 1.0969126 1.9269257e-38
0.18827194 0.41503254 1.0991421 1.9453644e-38
0.19206363 0.41359144 1.0953256 1.9268885e-38
0.19650903 0.41359144 1.0953256 1.8992298e-38
0.20095445 0.41359144 1.0953256 1.8993377e-38
0.2061754 0.41515309 1.0994613 1.9453278e-38
0.20984526 0.41359144 1.0953256 1.9452916e-38
0.21429066 0.41359144 1.0953256 1.9269966e-38
0.22703566 0.41251719 1.0924807 1.9913184e-38
0.23478977 0.41843444 1.1081514 1.9452922e-38
0.23956776 0.41892499 1.1094506 1.9360726e-38
0.24460816 0.41984788 1.1118946 1.9268889e-38
0.24886498 0.4194167 1.1107527 1.9638032e-38
0.25204179 0.41721308 1.1049169 1.9361442e-38
0.28062758 0.4336687 1.1484967 1.9636952e-38
0.30866721 0.42731601 1.1316727 1.8991937e-38
0.31038362 0.42339221 1.1212813 1.9176325e-38
0.31695288 0.42610586 1.1284678 1.9269243e-38
0.32076782 0.42509207 1.125783 1.9544034e-38
0.32293582 0.42195484 1.1174747 1.9266727e-38
0.32684398 0.42114675 1.1153345 1.8807185e-38
0.33161485 0.4214572 1.1161567 1.8807907e-38
0.33649206 0.42189258 1.1173097 1.8715711e-38
0.34122813 0.42214176 1.1179698 1.8531317e-38
0.34520471 0.4214572 1.1161567 1.8808627e-38
0.35108039 0.42307889 1.1204515 1.8347648e-38
0.35426459 0.4214572 1.1161567 1.8439485e-38
0.35847744 0.4210847 1.1151702 1.853132e-38
0.42460462 0.39820924 1.0545884 1.7700843e-38
0.4282881 0.39765531 1.0531216 1.7333497e-38
0.43382952 0.39882034 1.0562068 1.7333134e-38
0.5116573 0.44404227 1.1759694 1.6964355e-38
0.52208292 0.44075611 1.1672665 1.6779962e-38
0.52706409 0.44096008 1.1678067 1.7056192e-38
0.5371232 0.44143671 1.1690689 1.6871076e-38
0.54053241 0.44034874 1.1661878 1.6871433e-38
0.54518145 0.44028094 1.1660081 1.6780319e-38
0.54738462 0.43825603 1.1606455 1.6687406e-38
0.55175674 0.43798745 1.1599343 1.668741e-38
0.5518145 0.43432757 1.1502417 1.6503023e-38
0.55563861 0.4336687 1.1484967 1.650266e-38
-1.0455006 0.66075253 1.7312808 1.2078335e-38
-0.63174081 0.42194375 1.1055623 1.2722986e-38
-0.62234628 0.41864252 1.0969126 1.263043e-38
-0.61371529 0.415811 1.0894935 1.2814105e-38
-0.60150319 0.41049451 1.0755634 1.2998494e-38
-0.59679884 0.41026136 1.0749526 1.2907014e-38
-0.59009016 0.40863678 1.0706959 1.2907018e-38
-0.5862422 0.40898383 1.0716052 1.3090691e-38
-0.58271784 0.40956354 1.0731242 1.2999573e-38
-0.57934797 0.41026136 1.0749526 1.2999212e-38
-0.57703346 0.41172281 1.0787818 1.3182883e-38
-0.57494909 0.41337207 1.0831031 1.3551666e-38
-0.57309496 0.4152135 1.0879279 1.3552029e-38
-0.57114172 0.41701123 1.0926383 1.3643866e-38
-0.56999773 0.41943255 1.0989826 1.3552386e-38
-0.5682596 0.42145139 1.1042722 1.3091052e-38
-0.5654273 0.42268443 1.1075031 9.3103223e-39
-0.56241339 0.42380035 1.1104269 4.056965e-39
-0.55954808 0.42504719 1.1136938 4.7041267e-39
-0.5557639 0.42561066 1.1151702 1.1338975e-38
-0.55229551 0.42642722 1.1173097 1.4197042e-38
-0.54930115 0.42762628 1.1204515 1.4381431e-38
-0.54661435 0.42908683 1.1242784 1.4473628e-38
-0.54415244 0.43074995 1.1286361 1.4473628e-38
-0.54199576 0.43268505 1.1337063 1.4474345e-38
-0.54047006 0.43516126 1.1401944 1.4566903e-38
-0.53754258 0.43654189 1.1438118 1.4566901e-38
-0.53573328 0.4388625 1.1498923 1.4474704e-38
-0.53529412 0.4423562 1.1590464 1.4659094e-38
-0.53205627 0.44357857 1.1622491 1.4659811e-38
-0.52806884 0.44419229 1.1638571 1.5027515e-38
-0.52642047 0.44680235 1.1706959 1.5026799e-38
-0.52150792 0.44666421 1.170334 1.5303389e-38
-0.51075751 0.44147757 1.1567442 1.5396665e-38
-0.50283605 0.43866262 1.1493685 1.5304829e-38
-0.48131558 0.43190894 1.1316727 1.5397022e-38
-0.47650898 0.43171534 1.1311655 1.5488857e-38
-0.4729073 0.43262026 1.1335366 1.585728e-38
-0.46830684 0.43262026 1.1335366 1.5857641e-38
-0.46349815 0.43242604 1.1330277 1.5949477e-38
-0.45993221 0.43339893 1.1355768 1.6041674e-38
-0.45525515 0.43333393 1.1354065 1.6318261e-38
-0.44656184 0.42940566 1.1251138 1.5766523e-38
-0.44022912 0.42768958 1.1206174 1.6043113e-38
-0.41574314 0.40811732 1.0693349 1.613423e-38
-0.42967027 0.42623851 1.1168153 1.6134225e-38
-0.4262695 0.42737329 1.1197886 1.5950193e-38
-0.42103979 0.42667907 1.1179698 1.6042749e-38
-0.41582704 0.42598712 1.1161567 1.6135662e-38
-0.40798891 0.42256081 1.1071792 1.6042749e-38
-0.39917555 0.41803685 1.0953256 1.6410815e-38
-0.39656609 0.41998121 1.1004201 1.6687759e-38
-0.39198607 0.41985917 1.1001004 1.6779596e-38
-0.38865075 0.42108288 1.1033068 1.6595567e-38
-0.38518333 0.42219034 1.1062084 1.6596285e-38
-0.37991661 0.42132849 1.1039503 1.6503731e-38
-0.37401822 0.41973719 1.0997808 1.6687762e-38
-0.35268667 0.41049451 1.0755634 1.6779596e-38
-0.34513441 0.40673855 1.0657222 1.6963627e-38
-0.34080914 0.40673855 1.0657222 1.6779598e-38
-0.33959109 0.41049451 1.0755634 1.6871077e-38
-0.33441821 0.40950549 1.0729721 1.6872151e-38
-0.32627183 0.40480116 1.0606459 1.6963271e-38
-0.32337156 0.40656686 1.0652723 1.714766e-38
-0.31837615 0.40571058 1.0630287 1.687143e-38
-0.32561204 0.42649016 1.1174747 1.7332411e-38
-0.32360831 0.42985284 1.1262854 1.723986e-38
-0.31870535 0.42940566 1.1251138 1.6504088e-38
-0.31441939 0.42978889 1.1261179 1.6412609e-38
-0.3100335 0.43004477 1.1267884 1.6872874e-38
-0.30715179 0.43242604 1.1330277 1.6964355e-38
-0.3019208 0.43152192 1.1306587 1.6871436e-38
-0.29666743 0.4305574 1.1281315 1.6963985e-38
-0.29291818 0.43177986 1.1313345 1.7240569e-38
-0.28597623 0.42826009 1.1221122 1.6964348e-38
-0.28133872 0.42813316 1.1217797 1.6871436e-38
-0.27748489 0.4292143 1.1246125 1.6687757e-38
-0.27146894 0.42693126 1.1186304 1.6871789e-38
-0.26136792 0.41803685 1.0953256 1.6872514e-38
-0.25369263 0.41278154 1.0815558 1.6872512e-38
-0.24735957 0.40956354 1.0731242 1.6872151e-38
-0.24456421 0.4121927 1.0800129 1.7056542e-38
-0.24004398 0.41195762 1.0793971 1.7148744e-38
-0.23068394 0.41882458 1.0973896 1.7425693e-38
-0.22692089 0.42010334 1.1007402 1.7057262e-38
-0.22238883 0.41998121 1.1004201 1.7057621e-38
-0.21691385 0.41803685 1.0953256 1.7057984e-38
-0.21407899 0.42120564 1.1036284 1.6965069e-38
-0.21070562 0.42342773 1.1094506 1.7516807e-38
-0.20262063 0.42536005 1.1145136 1.7517887e-38
-0.19930024 0.42794293 1.1212813 1.7609724e-38
-0.18370923 0.4341152 1.1374536 1.7609723e-38
-0.14080785 0.42998075 1.1266207 1.807178e-38
-0.1365402 0.43094268 1.1291411 1.8255451e-38
-0.13209546 0.43139306 1.1303211 1.807142e-38
-0.12526383 0.42380035 1.1104269 1.8163255e-38
-0.11994786 0.42096019 1.1029853 1.8255093e-38
-0.11387865 0.41515383 1.0877717 1.7979577e-38
-0.11212197 0.42523485 1.1141856 1.8348e-38
-0.10761586 0.42529744 1.1143495 1.8439482e-38
-0.10096806 0.41653031 1.0913782 1.8807904e-38
-0.095806696 0.41337207 1.0831031 1.8531319e-38
-0.090864927 0.41090313 1.076634 1.871571e-38
-0.086335771 0.4101449 1.0746474 1.8346569e-38
-0.081846491 0.40950549 1.0729721 1.8254731e-38
-0.077425972 0.40915757 1.0720605 1.8807547e-38
-0.073178604 0.40973777 1.0735806 1.880827e-38
-0.069154873 0.41172281 1.0787818 1.8624237e-38
-0.065008186 0.41319475 1.0826385 1.8716793e-38
-0.059996542 0.40898383 1.0716052 1.8715711e-38
-0.055513825 0.40800208 1.0690329 1.9177043e-38
-0.052433774 0.41803685 1.0953256 1.9454351e-38
-0.04882903 0.42536005 1.1145136 1.9269244e-38
-0.04445627 0.42680514 1.1183 1.9822421e-38
-0.040160839 0.42940566 1.1251138 1.9639473e-38
-0.035605118 0.42953333 1.1254483 1.9454714e-38
-0.03110682 0.43049327 1.1279634 2.0098286e-38
-0.026540814 0.43068576 1.1284678 1.9729865e-38
-0.021938009 0.43023685 1.1272917 1.9638029e-38
-0.0173216 0.4292143 1.1246125 1.9730582e-38
-0.012693224 0.42705745 1.1189611 1.9361444e-38
-0.0081182951 0.42529744 1.1143495 1.9453993e-38
-0.0036068275 0.42661607 1.1178046 1.9269959e-38
0.00093854161 0.43062156 1.1282997 1.9361797e-38
0.0056551504 0.44134271 1.1563908 1.9545829e-38
0.010274633 0.43819696 1.1481484 1.9269245e-38
0.014728923 0.43216732 1.1323498 1.9454714e-38
0.019585302 0.4379977 1.1476263 1.9729865e-38
0.023831157 0.4305574 1.1281315 1.926925e-38
0.028249748 0.42813316 1.1217797 1.917741e-38
0.03270077 0.42680514 1.1183 1.9361078e-38
0.037102409 0.42523485 1.1141856 1.8991935e-38
0.041502204 0.42398691 1.1109158 1.9085211e-38
0.045930009 0.42324165 1.108963 1.2634065e-38
0.050357003 0.42262259 1.1073411 3.5048871e-39
0.05472311 0.4216359 1.1047556 3.4134131e-39
0.059077483 0.42071503 1.1023428 1.5124769e-38
0.06329333 0.41900679 1.097867 1.9085933e-38
0.06719365 0.41557181 1.0888668 1.9085572e-38
0.071132019 0.41278154 1.0815558 1.8993737e-38
0.075424567 0.4122515 1.0801671 1.9177406e-38
0.079536103 0.41084468 1.076481 1.926996e-38
0.083383366 0.40829036 1.0697881 1.9453994e-38
0.088311628 0.41102001 1.0769404 1.9361803e-38
0.092105933 0.40846351 1.0702418 1.9084857e-38
0.10209203 0.41372719 1.0840336 1.899337e-38
0.10736789 0.41713163 1.0929538 1.9177407e-38
0.1120463 0.41803685 1.0953256 1.9638024e-38
0.11580478 0.41557181 1.0888668 1.9822416e-38
0.11994796 0.41461769 1.0863669 1.9454718e-38
0.12394794 0.41325381 1.0827934 1.9636952e-38
0.12712432 0.40933147 1.0725161 1.9728071e-38
0.131832 0.41043618 1.0754106 1.9361085e-38
0.13715118 0.41331294 1.0829482 1.9638028e-38
0.14181006 0.41408294 1.0849657 1.9822772e-38
0.14636025 0.41449875 1.0860552 1.9823142e-38
0.15172569 0.41713163 1.0929538 1.9822066e-38
0.15582405 0.41623029 1.0905921 1.9637675e-38
0.15999672 0.41557181 1.0888668 1.9177773e-38
0.16508071 0.41725209 1.0932695 1.9177407e-38
0.1698366 0.41803685 1.0953256 1.9545831e-38
0.17488925 0.41949344 1.0991421 1.9730941e-38
0.17997725 0.42096019 1.1029853 1.9176335e-38
0.18327887 0.4182789 1.0959599 1.9729156e-38
0.18761823 0.41803685 1.0953256 1.9177055e-38
0.1919248 0.41773468 1.0945339 1.9085572e-38
0.19622515 0.41743293 1.0937432 1.8992301e-38
0.20046142 0.41701123 1.0926383 1.9361444e-38
0.20495507 0.41713163 1.0929538 1.926961e-38
0.20905887 0.41647026 1.091221 1.9545828e-38
0.21429066 0.41803685 1.0953256 1.9085573e-38
0.21962576 0.41973719 1.0997808 1.9269607e-38
0.222185 0.41617036 1.090435 1.9177407e-38
0.22762689 0.41803685 1.0953256 1.9269608e-38
0.23492731 0.42317966 1.1088006 1.9638391e-38
0.23977858 0.42380035 1.1104269 1.9177414e-38
0.24464411 0.42442286 1.112058 1.9454e-38
0.24875548 0.42373818 1.1102641 1.9913541e-38
0.25263169 0.42268443 1.1075031 2.0005738e-38
0.25863993 0.42517227 1.1140215 1.9545118e-38
0.26487613 0.42794293 1.1212813 1.9268171e-38
0.26910803 0.4274365 1.1199542 1.9268887e-38
0.27548727 0.43030092 1.1274595 2.0006094e-38
0.28212175 0.43346396 1.1357472 1.9361441e-38
0.28677425 0.43352899 1.1359175 1.92696e-38
0.28968927 0.43100697 1.1293095 1.9268885e-38
0.31488773 0.42787957 1.1211152 1.9177048e-38
0.31887117 0.4271206 1.1191266 1.8992657e-38
0.32255495 0.42598712 1.1161567 1.9175969e-38
0.32645923 0.42517227 1.1140215 1.8991937e-38
0.33127299 0.42554799 1.115006 1.8715713e-38
0.33545244 0.42510971 1.1138577 1.871607e-38
0.34027341 0.42548531 1.1148418 1.8624233e-38
0.3446458 0.42529744 1.1143495 1.8623519e-38
0.35030273 0.42667907 1.1179698 1.8624236e-38
0.35182676 0.42305574 1.1084759 1.8439123e-38
0.35800287 0.42504719 1.1136938 1.8437687e-38
0.4138976 0.40457445 1.0600519 1.7793752e-38
0.41902122 0.40536907 1.0621339 1.7886308e-38
0.42195967 0.39998209 1.0480192 1.7793038e-38
0.42550623 0.39931878 1.0462812 1.733242e-38
0.43172148 0.40114823 1.0510746 1.770156e-38
0.44637805 0.40282598 1.0554706 1.7240216e-38
0.5116573 0.44881496 1.1759694 1.7056187e-38
0.51846462 0.44645718 1.1697916 1.7148028e-38
0.52264696 0.4459748 1.1685277 1.6595568e-38
0.52722675 0.44583717 1.1681671 1.67796e-38
0.5322963 0.44611251 1.1688884 1.7055113e-38
0.53912115 0.44784111 1.1734177 1.6778164e-38
0.54295784 0.44707888 1.1714205 1.6595206e-38
0.54737329 0.44680235 1.1706959 1.6319701e-38
0.54915249 0.44439721 1.1643941 1.6687764e-38
0.55722052 0.44707888 1.1714205 1.6687046e-38
-0.62444586 0.42150655 1.092796 1.2538953e-38
-0.61214679 0.41616037 1.0789355 1.2722628e-38
-0.60629904 0.41515461 1.0763279 1.2906301e-38
-0.5980199 0.41245726 1.0693349 1.2722627e-38
-0.59234136 0.41152725 1.0669237 1.2723705e-38
-0.58726639 0.41100597 1.0655723 1.2814827e-38
-0.5840103 0.41175938 1.0675255 1.2999218e-38
-0.58016855 0.412108 1.0684294 1.2907377e-38
-0.57713544 0.41304064 1.0708474 1.2999212e-38
-0.57416999 0.41403621 1.0734284 1.3182523e-38
-0.57167768 0.41539082 1.0769404 1.3366915e-38
-0.56965685 0.41711149 1.0814013 1.3367639e-38
-0.56737506 0.4186663 1.0854324 1.3644586e-38
-0.56548303 0.42053536 1.090278 1.2906304e-38
-0.56357408 0.42242116 1.0951672 8.756787e-39
-0.56197459 0.42457071 1.1007402 3.7803768e-39
-0.56019497 0.42661759 1.1060469 5.0725463e-39
-0.55692649 0.42755452 1.1084759 1.1800315e-38
-0.55364358 0.42849559 1.1109158 1.4105204e-38
-0.55091333 0.42988333 1.1145136 1.4290311e-38
-0.54784173 0.43102545 1.1174747 1.4382148e-38
-0.54475373 0.43217367 1.1204515 1.4473982e-38
-0.5418101 0.43345663 1.1237777 1.44747e-38
-0.53900933 0.43487677 1.1274595 1.4566898e-38
-0.53595001 0.43611073 1.1306587 1.4658738e-38
-0.53207636 0.43669769 1.1321805 1.4474704e-38
-0.53145516 0.43998757 1.1407098 1.4659813e-38
-0.5279392 0.44091761 1.143121 1.4843844e-38
-0.53018427 0.44671828 1.1581599 1.4935681e-38
-0.52855635 0.44933027 1.1649317 1.5119716e-38
-0.52625769 0.45141405 1.170334 1.511936e-38
-0.47283652 0.43715531 1.1333668 1.5856204e-38
-0.46823671 0.43715531 1.1333668 1.5949478e-38
-0.46356753 0.43708986 1.1331972 1.6133509e-38
-0.46034649 0.43840227 1.1365998 1.6042033e-38
-0.45655608 0.43919349 1.138651 1.6134228e-38
-0.44802663 0.43539548 1.1288043 1.5950556e-38
-0.44192988 0.43390748 1.1249466 1.5950554e-38
-0.41433859 0.41106382 1.0657222 1.6226422e-38
-0.41233504 0.41339147 1.071757 1.6317899e-38
-0.40763906 0.41304064 1.0708474 1.622606e-38
-0.40374985 0.41350856 1.0720605 1.6227137e-38
-0.40064698 0.41480076 1.0754106 1.622678e-38
-0.40176097 0.42053536 1.090278 1.6134947e-38
-0.39353892 0.41651654 1.0798589 1.6411177e-38
-0.39172646 0.41926739 1.0869908 1.6503371e-38
-0.38865411 0.42071709 1.0907493 1.6503735e-38
-0.38634238 0.42303309 1.0967537 1.6503378e-38
-0.38250071 0.42370826 1.0985042 1.6595928e-38
-0.37651274 0.42199385 1.0940593 1.6595927e-38
-0.36993411 0.4195686 1.0877717 1.6872152e-38
-0.36384651 0.41764838 1.0827934 1.6596647e-38
-0.35822237 0.41621971 1.0790893 1.6502653e-38
-0.34633949 0.4073936 1.0562068 1.6687399e-38
-0.34205285 0.4073936 1.0562068 1.7055461e-38
-0.34061736 0.41083249 1.0651225 1.6870713e-38
-0.33615267 0.41065916 1.0646732 1.7055464e-38
-0.33215863 0.41106382 1.0657222 1.6871792e-38
-0.32595217 0.40870503 1.0596068 1.6780316e-38
-0.32323509 0.41071692 1.0648229 1.6964348e-38
-0.31864458 0.41037062 1.063925 1.6964348e-38
-0.32375279 0.43461785 1.1267884 1.7147305e-38
-0.318138 0.43319944 1.1231109 1.6687043e-38
-0.31357983 0.43319944 1.1231109 1.6595922e-38
-0.30925104 0.433521 1.1239446 1.6780675e-38
-0.30641809 0.4359805 1.1303211 1.6688122e-38
-0.30115622 0.43500632 1.1277955 1.6779958e-38
-0.29618195 0.43442389 1.1262854 1.6780674e-38
-0.29291818 0.43637139 1.1313345 1.6688837e-38
-0.28546852 0.43204579 1.1201199 1.6781035e-38
-0.2819654 0.43364975 1.1242784 1.6780678e-38
-0.26369685 0.41222435 1.0687311 1.6688478e-38
-0.2588478 0.41141132 1.0666231 1.6688122e-38
-0.25570774 0.41333297 1.0716052 1.7056545e-38
-0.25093237 0.41263211 1.0697881 1.7055466e-38
-0.24599969 0.41164327 1.0672245 1.696399e-38
-0.24235159 0.41280711 1.0702418 1.7148742e-38
-0.23834491 0.41339147 1.071757 1.7057265e-38
-0.22418296 0.41944805 1.0874592 1.7333852e-38
-0.21935989 0.4186663 1.0854324 1.7517884e-38
-0.21480066 0.4183664 1.0846548 1.7150179e-38
-0.21139799 0.42035374 1.0898073 1.7149459e-38
-0.20883881 0.42413905 1.0996211 1.760936e-38
-0.20184806 0.42824423 1.1102641 1.7516807e-38
-0.17690518 0.42248225 1.0953256 1.7610077e-38
-0.13385609 0.41309908 1.0709988 1.7978864e-38
-0.12945448 0.41292384 1.0705445 1.7886305e-38
-0.12493299 0.41234079 1.0690329 1.7978865e-38
-0.12103865 0.41386017 1.0729721 1.7979586e-38
-0.11670051 0.41391885 1.0731242 1.8348007e-38
-0.11191689 0.41234079 1.0690329 1.8163614e-38
-0.10791343 0.41362569 1.0723641 1.8163612e-38
-0.10449366 0.41734993 1.0820196 1.7795189e-38
-0.098844975 0.412108 1.0684294 1.8715706e-38
-0.09487021 0.41368428 1.0725161 1.843912e-38
-0.089943998 0.41106382 1.0657222 1.8439479e-38
-0.085860461 0.41222435 1.0687311 1.8623513e-38
-0.081327818 0.41123748 1.0661725 1.8347646e-38
-0.077044129 0.41146928 1.0667734 1.8624232e-38
-0.072622508 0.41094813 1.0654223 1.8716067e-38
-0.068202488 0.41037062 1.063925 1.8624593e-38
-0.064091675 0.41170132 1.0673749 1.8809348e-38
-0.059002724 0.40648627 1.0538545 1.9084857e-38
-0.055001248 0.40853348 1.0591621 1.9361797e-38
-0.051553663 0.41539082 1.0769404 1.9268885e-38
-0.04798837 0.42248225 1.0953256 1.9453994e-38
-0.044072185 0.42761713 1.1086383 1.9730584e-38
-0.040077455 0.43307096 1.1227778 1.9362526e-38
-0.035594538 0.43397197 1.1251138 1.9546908e-38
-0.031028233 0.43397197 1.1251138 1.9913896e-38
-0.026525 0.43500632 1.1277955 1.9177051e-38
-0.021928214 0.43461785 1.1267884 1.9638024e-38
-0.017329322 0.43397197 1.1251138 1.9822422e-38
-0.012693224 0.43159878 1.1189611 1.9361447e-38
-0.0081314603 0.43051708 1.1161567 1.9269247e-38
-0.0036073599 0.43121639 1.1179698 1.9638385e-38
0.00093146192 0.43191797 1.1197886 1.9269606e-38
0.005601251 0.44178477 1.1453693 1.9730577e-38
0.010192707 0.43932563 1.1389936 1.9177766e-38
0.014539729 0.43115273 1.1178046 1.9085576e-38
0.019284215 0.43585035 1.1299837 1.9454e-38
0.02362347 0.43134379 1.1183 1.9268891e-38
0.028050249 0.42963034 1.1138577 1.9084853e-38
0.032527801 0.42906222 1.1123848 1.9176329e-38
0.036852926 0.42686704 1.1066936 1.8900108e-38
0.041110106 0.4244473 1.1004201 1.8809352e-38
0.045391455 0.4227269 1.0959599 1.429286e-38
0.049688388 0.42144573 1.0926383 4.4257588e-39
0.05392056 0.41987023 1.0885537 2.6762082e-39
0.058238 0.41914704 1.0866787 1.3555996e-38
0.062477928 0.41800708 1.0837233 1.9545467e-38
0.066609278 0.41633838 1.0793971 1.9362519e-38
0.070737906 0.41485971 1.0755634 1.9454004e-38
0.074996561 0.41427115 1.0740376 1.9454364e-38
0.079019271 0.41251552 1.0694859 1.9177411e-38
0.082255937 0.40705287 1.0553235 1.9453278e-38
0.087601349 0.41204986 1.0682787 1.9177051e-38
0.09151087 0.4101401 1.0633273 1.9268882e-38
0.10172788 0.41663539 1.0801671 1.9360354e-38
0.10690489 0.41974953 1.0882407 1.9269603e-38
0.1115139 0.4204748 1.090121 1.9822055e-38
0.11563847 0.41938782 1.087303 1.9545472e-38
0.1198276 0.41860628 1.0852767 1.9270327e-38
0.12391249 0.41752893 1.0824836 1.9637669e-38
0.12721443 0.4139775 1.0732763 1.9176691e-38
0.13230182 0.41627902 1.0792432 1.9177053e-38
0.13703358 0.41734993 1.0820196 1.9453998e-38
0.14166795 0.41806692 1.0838784 1.9730221e-38
0.14621343 0.4184863 1.0849657 1.9729868e-38
0.15139785 0.4206565 1.0905921 1.9638028e-38
0.15568949 0.42029324 1.0896504 1.954655e-38
0.15992773 0.41980988 1.0883971 1.9271046e-38
0.16448689 0.4201723 1.0893368 1.8900824e-38
0.16932216 0.42120257 1.0920079 1.9361438e-38
0.17438293 0.4227269 1.0959599 1.9362517e-38
0.17914209 0.42346251 1.097867 1.9453278e-38
0.18261799 0.42120257 1.0920079 1.9636953e-38
0.18678053 0.42059591 1.090435 1.9361442e-38
0.19139905 0.42102039 1.0915356 1.8993377e-38
0.19585732 0.4210811 1.0916929 1.9361081e-38
0.20005719 0.42059591 1.090435 1.9177408e-38
0.20451221 0.4206565 1.0905921 1.9361801e-38
0.2086979 0.4201723 1.0893368 1.9362514e-38
0.21429066 0.42248225 1.0953256 1.9177407e-38
0.21924359 0.42346251 1.097867 1.8624595e-38
0.22318149 0.42248225 1.0953256 1.8716069e-38
0.22825433 0.42364681 1.0983448 1.9176694e-38
0.23413862 0.42624396 1.1050782 1.9361442e-38
0.23925221 0.42736682 1.1079893 1.9452918e-38
0.24389179 0.42761713 1.1086383 1.9545829e-38
0.24770206 0.4264307 1.1055623 1.9638747e-38
0.2516745 0.42556068 1.1033068 2.0006097e-38
0.25690106 0.42680466 1.1065319 1.9822066e-38
0.26177454 0.42742938 1.1081514 1.9637669e-38
0.26545605 0.42611957 1.1047556 1.9360722e-38
0.27454689 0.43339232 1.123611 1.9914616e-38
0.31498101 0.43255776 1.1214473 1.8807906e-38
0.31957978 0.43262184 1.1216135 1.908557e-38
0.32203269 0.42982006 1.1143495 1.8992656e-38
0.32593167 0.42899919 1.1122214 1.9084851e-38
0.32976741 0.42811868 1.1099385 1.8808627e-38
0.33353865 0.42717925 1.1075031 1.8992657e-38
0.33927423 0.42874724 1.1115682 1.880719e-38
0.3428292 0.42755452 1.1084759 1.8715e-38
0.34927121 0.4299466 1.1146777 1.8808271e-38
0.34926987 0.4244473 1.1004201 1.8531682e-38
0.35606489 0.42724174 1.1076651 1.862208e-38
0.3572678 0.41304064 1.0708474 1.8163258e-38
0.38202405 0.41633838 1.0793971 1.7978146e-38
0.41424561 0.40922049 1.0609432 1.7792676e-38
0.41884494 0.40950742 1.0616871 1.7702277e-38
0.42232469 0.40870503 1.0596068 1.7609724e-38
0.42324862 0.40547034 1.0512207 1.7425334e-38
0.42650828 0.4045155 1.048745 1.7332781e-38
0.43172148 0.40541404 1.0510746 1.7608646e-38
0.44507504 0.40592125 1.0523896 1.7332414e-38
0.4485051 0.40134653 1.0405293 1.7240218e-38
0.5168314 0.45394021 1.1768833 1.7239504e-38
0.52177006 0.45408139 1.1772494 1.7239863e-38
0.52613884 0.45372862 1.1763349 1.6687408e-38
0.52976066 0.4527438 1.1737815 1.6779602e-38
0.5343588 0.45260343 1.1734177 1.705583e-38
0.54037744 0.45365813 1.1761521 1.6779245e-38
0.54548991 0.45394021 1.1768833 1.6687047e-38
0.55026627 0.45394021 1.1768833 1.6595572e-38
0.55297965 0.45225295 1.1725091 1.6504094e-38
-0.60299009 0.37900385 0.97237229 1.1985781e-38
-0.59873611 0.37880924 0.97187299 1.2169812e-38
-0.59402919 0.37832358 0.97062701 1.2353483e-38
-0.58745384 0.37663358 0.96629113 1.2261643e-38
-0.58383018 0.37682596 0.96678466 1.2262003e-38
-0.60966188 0.4158574 1.0669237 1.2630789e-38
-0.60034019 0.41242823 1.0581259 1.2814464e-38
-0.59780031 0.41364229 1.0612407 1.2906658e-38
-0.59034872 0.41145065 1.0556178 1.2815181e-38
-0.58729273 0.41231298 1.0578302 1.263115e-38
-0.58422399 0.41317895 1.0600519 1.2631154e-38
-0.58089775 0.41387436 1.061836 1.2722989e-38
-0.57772261 0.41468859 1.063925 1.2999212e-38
-0.57502079 0.4158574 1.0669237 1.2998494e-38
-0.57230371 0.41703281 1.0699394 1.2998494e-38
-0.56973267 0.41833344 1.0732763 1.3182526e-38
-0.56722623 0.4197019 1.0767872 1.3275443e-38
-0.56454223 0.4209592 1.0800129 1.2629718e-38
-0.56160104 0.42204291 1.0827934 8.2954487e-39
-0.55912566 0.42349657 1.0865228 3.3197587e-39
-0.55743599 0.42557314 1.0918504 5.2569404e-39
-0.5556491 0.42760819 1.0970715 1.1432252e-38
-0.55344212 0.42935023 1.1015409 1.4105201e-38
-0.55121708 0.43110651 1.1060469 1.4566538e-38
-0.54865187 0.43262339 1.1099385 1.4566897e-38
-0.5459882 0.4340871 1.1136938 1.4566179e-38
-0.54314607 0.4354322 1.1171448 1.4474343e-38
-0.54004651 0.4365918 1.1201199 1.4659095e-38
-0.53685075 0.43769267 1.1229444 1.4658738e-38
-0.53332162 0.43853828 1.1251138 1.4658378e-38
-0.52977884 0.43938714 1.1272917 1.4750572e-38
-0.5250473 0.43925634 1.1269561 1.4935681e-38
-0.5224176 0.44089708 1.1311655 1.4843485e-38
-0.53164816 0.45266515 1.1613576 1.4935323e-38
-0.49856138 0.42829087 1.0988231 1.5119718e-38
-0.48808047 0.42307156 1.0854324 1.5027522e-38
-0.47128439 0.44030499 1.1296465 1.594804e-38
-0.46711788 0.44069952 1.1306587 1.5949119e-38
-0.46335948 0.44149074 1.1326886 1.5949837e-38
-0.4600012 0.44268289 1.1357472 1.6134586e-38
-0.45566517 0.44294867 1.1364291 1.6225701e-38
-0.41822055 0.41070619 1.0537078 1.6318255e-38
-0.41492578 0.41168025 1.0562068 1.6134221e-38
-0.41387251 0.41492182 1.0645235 1.585836e-38
-0.4119851 0.41738671 1.0708474 1.6134586e-38
-0.40585947 0.41556457 1.0661725 1.5950552e-38
-0.40192857 0.41597465 1.0672245 1.5950194e-38
-0.39922926 0.41768211 1.0716052 1.6318258e-38
-0.39058626 0.41774124 1.071757 1.659485e-38
-0.39015797 0.42198256 1.0826385 1.6595209e-38
-0.38725927 0.42361817 1.0868348 1.6227503e-38
-0.38483715 0.42581877 1.0924807 1.6872156e-38
-0.38023868 0.4256345 1.0920079 1.6687406e-38
-0.37548178 0.42526647 1.0910636 1.6687405e-38
-0.36771515 0.42144018 1.0812469 1.67796e-38
-0.362757 0.42077914 1.079551 1.6411181e-38
-0.35781437 0.42012018 1.0778604 1.6687047e-38
-0.34945968 0.41538909 1.0657222 1.6872155e-38
-0.3453775 0.41568166 1.0664729 1.6595924e-38
-0.34153029 0.41626802 1.0679773 1.6411534e-38
-0.3369582 0.41597465 1.0672245 1.6871793e-38
-0.33253309 0.4158574 1.0669237 1.6779958e-38
-0.32741857 0.4148635 1.0643737 1.6689196e-38
-0.32337156 0.41521373 1.0652723 1.6688837e-38
-0.31801891 0.41387436 1.061836 1.6780674e-38
-0.31239501 0.41214022 1.057387 1.6871795e-38
-0.31097007 0.41597465 1.0672245 1.6779242e-38
-0.30694157 0.4163855 1.0682787 1.6778883e-38
-0.29547864 0.43795252 1.123611 1.6779959e-38
-0.26848912 0.41726866 1.0705445 1.6595208e-38
-0.22444087 0.42434916 1.0887102 1.7333136e-38
-0.21970637 0.42373982 1.0871469 1.7333496e-38
-0.21517056 0.42349657 1.0865228 1.7149463e-38
-0.21161123 0.4252052 1.0909065 1.6965068e-38
-0.20841502 0.42773214 1.0973896 1.7241296e-38
-0.20111074 0.43116951 1.1062084 1.7148384e-38
-0.13849665 0.41833344 1.0732763 1.788631e-38
-0.13349728 0.41632676 1.068128 1.7794474e-38
-0.12927169 0.41667947 1.0690329 1.7701557e-38
-0.12040727 0.41603327 1.0673749 1.8070349e-38
-0.11610804 0.41615063 1.0676761 1.8163619e-38
-0.11133522 0.41451386 1.0634767 1.7887744e-38
-0.10719977 0.41521373 1.0652723 1.7795189e-38
-0.10283293 0.41503856 1.0648229 1.7886668e-38
-0.097714216 0.41168025 1.0562068 1.7978141e-38
-0.094044209 0.41439742 1.0631781 1.7886663e-38
-0.089327857 0.41254357 1.0584217 1.8255811e-38
-0.085426338 0.41445562 1.0633273 1.8439845e-38
-0.080838308 0.41306329 1.0597552 1.8532398e-38
-0.076816827 0.41457209 1.0636262 1.8808263e-38
-0.072388209 0.41393241 1.061985 1.8623513e-38
-0.068001807 0.41346842 1.0607946 1.8717505e-38
-0.063830696 0.41433924 1.0630287 1.8994095e-38
-0.058945287 0.41036353 1.0528287 1.880899e-38
-0.05492441 0.41225538 1.0576824 1.8716793e-38
-0.047767222 0.42496026 1.090278 1.9177413e-38
-0.044014178 0.43154782 1.1071792 1.9269968e-38
-0.030913381 0.43691501 1.1209491 1.9361445e-38
-0.026418742 0.43782255 1.1232775 1.9177411e-38
-0.021869626 0.43801752 1.1237777 1.9637661e-38
-0.017252406 0.4365918 1.1201199 1.963623e-38
-0.012618624 0.43357685 1.1123848 1.9361804e-38
-0.0080519263 0.43079183 1.1052395 1.9546198e-38
-0.0035657629 0.43072894 1.1050782 1.9269245e-38
0.00092272734 0.43236983 1.109288 1.9176331e-38
0.01005505 0.43795252 1.123611 1.9178125e-38
0.014469231 0.43357685 1.1123848 1.8717508e-38
0.019025804 0.43453455 1.1148418 1.8808986e-38
0.023495063 0.43351316 1.1122214 1.9177406e-38
0.02785355 0.43110651 1.1060469 1.8992651e-38
0.032267045 0.43010116 1.1034676 1.9084849e-38
0.036400646 0.4260647 1.0931116 1.8900464e-38
0.040573448 0.4233143 1.0860552 1.8717158e-38
0.044846136 0.42204291 1.0827934 1.6411548e-38
0.049163334 0.42137998 1.0810925 5.6224943e-39
0.05345175 0.42059922 1.0790893 2.5832881e-39
0.057765394 0.42012018 1.0778604 1.2077618e-38
0.062069226 0.41964221 1.076634 1.9636579e-38
0.066259742 0.41851142 1.073733 1.9362161e-38
0.070328265 0.41679719 1.0693349 1.9638035e-38
0.07441593 0.41538909 1.0657222 1.9546195e-38
0.078355148 0.41335258 1.0604974 1.9454353e-38
0.081551142 0.40781149 1.0462812 1.9639103e-38
0.086454637 0.41093498 1.0542948 1.8900823e-38
0.090860046 0.41150802 1.055765 1.8530949e-38
0.10132311 0.41934404 1.0758691 1.8254356e-38
0.10633934 0.42192224 1.0824836 1.9729496e-38
0.11074846 0.42198256 1.0826385 1.9821695e-38
0.11496155 0.42131981 1.0809381 1.9729866e-38
0.11914443 0.42059922 1.0790893 1.936216e-38
0.12334813 0.42000058 1.0775535 1.936216e-38
0.12685476 0.41715071 1.0702418 1.9177769e-38
0.13155171 0.41827413 1.0731242 1.8810066e-38
0.13611925 0.41892731 1.0747999 1.936252e-38
0.14090142 0.42017999 1.0780138 1.9453275e-38
0.14567065 0.42131981 1.0809381 1.9545835e-38
0.15055206 0.42270795 1.0844995 1.9638025e-38
0.15490915 0.42258686 1.0841888 1.9546904e-38
0.15930936 0.42258686 1.0841888 1.9271405e-38
0.16377993 0.4227685 1.0846548 1.9454001e-38
0.16854423 0.42367896 1.0869908 1.9545113e-38
0.17337899 0.42471561 1.0896504 1.9361081e-38
0.17762241 0.42428815 1.0885537 1.9638022e-38
0.18183118 0.42380068 1.087303 1.9361796e-38
0.18611039 0.42349657 1.0865228 1.9176332e-38
0.19060212 0.42367896 1.0869908 1.9176694e-38
0.19473411 0.42307156 1.0854324 1.9453276e-38
0.19919649 0.42319289 1.0857437 1.9545469e-38
0.20336969 0.42270795 1.0844995 1.8993017e-38
0.20794989 0.42307156 1.0854324 1.917741e-38
0.2133646 0.42508268 1.0905921 1.9177408e-38
0.21902126 0.4274843 1.0967537 1.9177407e-38
0.2237642 0.42804235 1.0981855 1.8809343e-38
0.22928549 0.43003848 1.1033068 1.8900467e-38
0.23413862 0.43072894 1.1050782 1.8900823e-38
0.23872815 0.43091765 1.1055623 1.9268522e-38
0.24335726 0.43116951 1.1062084 1.954475e-38
0.24716067 0.42997581 1.103146 1.9270324e-38
0.25112554 0.42910048 1.1009002 1.9361084e-38
0.25537077 0.42872643 1.0999405 1.9453284e-38
0.25807267 0.42581877 1.0924807 1.9545475e-38
0.2611874 0.42367896 1.0869908 1.9729505e-38
0.26374352 0.42071915 1.0793971 1.936144e-38
0.31802499 0.43504703 1.1161567 1.9083775e-38
0.32005414 0.43167409 1.1075031 1.8991222e-38
0.3228488 0.42941269 1.1017013 1.9176328e-38
0.32444015 0.4256345 1.0920079 1.8901183e-38
0.32839841 0.42502147 1.090435 1.8808623e-38
0.33431667 0.42692769 1.0953256 1.8898664e-38
0.33807731 0.4260647 1.0931116 1.8899748e-38
0.34666815 0.43123251 1.1063701 1.862388e-38
0.34495792 0.42361817 1.0868348 1.8532759e-38
0.34886804 0.42301092 1.0852767 1.8439843e-38
0.35646111 0.41644427 1.0684294 1.8347285e-38
0.37507647 0.41785955 1.0720605 1.8162538e-38
0.38039702 0.41892731 1.0747999 1.8254373e-38
0.38323575 0.41726866 1.0705445 1.8162182e-38
0.41558507 0.4148635 1.0643737 1.7792319e-38
0.42073295 0.41568166 1.0664729 1.788487e-38
0.42333192 0.41399047 1.0621339 1.7517527e-38
0.4236604 0.41013539 1.0522434 1.7241306e-38
0.42704067 0.40928212 1.0500542 1.7610449e-38
0.43160164 0.40956613 1.0507829 1.7609004e-38
0.43774971 0.41133595 1.0553235 1.788487e-38
0.4397037 0.40916863 1.049763 1.7608288e-38
0.44433385 0.4095093 1.0506371 1.7516452e-38
0.44556808 0.4067435 1.0435411 1.7148742e-38
0.44869012 0.40573683 1.0409584 1.7240217e-38
0.45353845 0.40629548 1.0423917 1.7239141e-38
0.53000718 0.45772049 1.1743277 1.6872159e-38
0.46533716 0.39828911 1.0218506 1.6963994e-38
0.54121828 0.45914486 1.1779821 1.6779962e-38
0.54540509 0.45864534 1.1767005 1.687108e-38
0.54873091 0.45743668 1.1735996 1.6594849e-38
0.55289406 0.45694086 1.1723275 1.6503016e-38
0.55289406 0.45694086 1.1723275 1.4382876e-38
0.55289406 0.45694086 1.1723275 1.4291041e-38
0.55289406 0.45694086 1.1723275 1.4106294e-38
-0.59812182 0.38236097 0.97087598 1.2169453e-38
-0.59418154 0.38236097 0.97087598 1.2354203e-38
-0.5880543 0.38094425 0.96727878 1.2170529e-38
-0.59736067 0.40594292 1.0307543 1.263043e-38
-0.5927738 0.40566677 1.0300531 1.2538233e-38
-0.59246248 0.40833342 1.0368242 1.2538234e-38
-0.58865756 0.40861323 1.0375347 1.2814461e-38
-0.58428657 0.40850127 1.0372504 1.2814821e-38
-0.58335364 0.41080886 1.0431098 1.2722987e-38
-0.5816043 0.41257101 1.0475842 1.2538597e-38
-0.57871395 0.41354379 1.0500542 1.2631154e-38
-0.57645106 0.41498271 1.0537078 1.2723707e-38
-0.57433283 0.41654801 1.0576824 1.2907377e-38
-0.57235903 0.41824248 1.061985 1.3091049e-38
-0.57020855 0.41983256 1.0660224 1.3274723e-38
-0.56788105 0.42131564 1.0697881 1.336728e-38
-0.56529665 0.42262945 1.0731242 1.2261656e-38
-0.56189704 0.42334953 1.0749526 7.7429952e-39
-0.55888337 0.42437387 1.0775535 3.5041486e-39
-0.55617243 0.42564607 1.0807838 5.9023126e-39
-0.55304921 0.42662051 1.083258 1.2445683e-38
-0.55078059 0.42827502 1.0874592 1.4197398e-38
-0.54904848 0.43037683 1.092796 1.4474347e-38
-0.54769647 0.43281329 1.0989826 1.4473987e-38
-0.54545319 0.43457961 1.1034676 1.4566178e-38
-0.54295313 0.43616891 1.1075031 1.4382147e-38
-0.54027611 0.43764138 1.1112418 1.4290311e-38
-0.53773934 0.43925321 1.1153345 1.4474705e-38
-0.53447253 0.44029102 1.1179698 1.4658737e-38
-0.53126884 0.44139907 1.1207832 1.4658374e-38
-0.52625269 0.44100735 1.1197886 1.4750572e-38
-0.52217138 0.44139907 1.1207832 1.4843844e-38
-0.51503038 0.43918851 1.1151702 1.4659455e-38
-0.50419182 0.43375775 1.1013807 1.4935323e-38
-0.49375993 0.42858282 1.0882407 1.4935323e-38
-0.48689377 0.42643747 1.0827934 1.4936044e-38
-0.48043784 0.42461559 1.0781673 1.5028597e-38
-0.47107351 0.44469064 1.1291411 1.5581413e-38
-0.46377578 0.44648859 1.1337063 1.5674328e-38
-0.46131608 0.44857091 1.1389936 1.585836e-38
-0.41425237 0.40688464 1.0331455 1.622642e-38
-0.41361523 0.41041303 1.0421047 1.6318254e-38
-0.40944219 0.41046953 1.0422481 1.6041671e-38
-0.40881407 0.41411817 1.0515126 1.5858001e-38
-0.40703392 0.41666445 1.057978 1.5950912e-38
-0.40245888 0.41637352 1.0572393 1.6134584e-38
-0.39905968 0.41730592 1.0596068 1.5950196e-38
-0.38838702 0.41971436 1.0657222 1.6317903e-38
-0.38565376 0.42625457 1.0823289 1.6595202e-38
-0.38323343 0.42845964 1.0879279 1.668704e-38
-0.37832877 0.42790624 1.0865228 1.6595922e-38
-0.37370455 0.42766073 1.0858995 1.6595924e-38
-0.36666784 0.42461559 1.0781673 1.6687759e-38
-0.36270529 0.42509991 1.0793971 1.6503371e-38
-0.3576616 0.42431346 1.0774001 1.6410821e-38
-0.34828305 0.41830117 1.0621339 1.6135311e-38
-0.34474617 0.41924223 1.0645235 1.6227506e-38
-0.34167489 0.42078051 1.0684294 1.6779959e-38
-0.33710077 0.42048383 1.0676761 1.6779239e-38
-0.33234575 0.41995081 1.0663227 1.6503372e-38
-0.32769498 0.41953719 1.0652723 1.6688121e-38
-0.32451308 0.42101818 1.0690329 1.6872156e-38
-0.31868938 0.41906545 1.0640746 1.6963629e-38
-0.31344566 0.41783223 1.0609432 1.6871079e-38
-0.31110162 0.42048383 1.0676761 1.668705e-38
-0.30715829 0.42101818 1.0690329 1.6595929e-38
-0.28072971 0.42042452 1.0675255 1.6411535e-38
-0.27561983 0.41924223 1.0645235 1.6595928e-38
-0.27221808 0.42066178 1.068128 1.6780679e-38
-0.26769421 0.42036524 1.0673749 1.6872512e-38
-0.25786692 0.4184773 1.0625812 1.6687402e-38
-0.2550219 0.4208993 1.0687311 1.6872151e-38
-0.25050759 0.42060244 1.0679773 1.6780318e-38
-0.24565341 0.41971436 1.0657222 1.6964356e-38
-0.24207781 0.42101818 1.0690329 1.705655e-38
-0.2284324 0.42796767 1.0866787 1.7240217e-38
-0.22398993 0.42790624 1.0865228 1.6965071e-38
-0.2190772 0.42692593 1.0840336 1.7149465e-38
-0.21504712 0.42766073 1.0858995 1.7148747e-38
-0.20932525 0.43407348 1.1021824 1.7240223e-38
