# .PCD v0.7 - Point Cloud Data file format
VERSION 0.7
FIELDS x y z rgb
SIZE 4 4 4 4
TYPE F F F F
COUNT 1 1 1 1
WIDTH 1050
HEIGHT 1
VIEWPOINT 0 0 0 1 0 0 0
POINTS 1050
DATA ascii
0.83765894 -1.1605181 2.6733372 4.8852978e-39
0.84167314 -1.1511688 2.6518006 4.7016198e-39
0.85966212 -1.160928 2.6742814 4.2413591e-39
0.88078272 -1.1746202 2.7058222 4.0562518e-39
0.89689314 -1.1813756 2.7213843 3.9640562e-39
0.90826446 -1.1818005 2.7223628 4.0555287e-39
0.91340125 -1.1742004 2.7048557 4.7930952e-39
0.92669654 -1.1771444 2.711637 4.9792885e-39
0.92543775 -1.1617486 2.676172 4.7030603e-39
0.93862158 -1.1646304 2.6828103 4.9792871e-39
0.96559161 -1.1843557 2.7282488 5.0711282e-39
0.9848268 -1.194254 2.7510505 4.7938238e-39
1.0144227 -1.2163534 2.8019581 4.3332044e-39
1.0734689 -1.2728842 2.9321809 4.242085e-39
1.0607204 -1.243977 2.8655908 4.9800088e-39
1.0466014 -1.2141068 2.7967827 4.793821e-39
1.0603024 -1.2168038 2.8029954 4.7934623e-39
1.0736659 -1.2190605 2.8081939 4.9778536e-39
1.0838569 -1.2177055 2.8050725 5.165486e-39
1.0989058 -1.2217796 2.8144577 5.1655e-39
1.1103283 -1.2217796 2.8144577 4.5175999e-39
1.1188394 -1.2186085 2.8071527 3.8733039e-39
1.1289765 -1.2172545 2.8040335 4.0569763e-39
1.1374079 -1.2141068 2.7967827 3.8729479e-39
1.133269 -1.1977358 2.7590709 4.3321268e-39
1.0934598 -1.1443548 2.6361041 3.9644205e-39
1.1693006 -1.2118684 2.7916265 3.8722263e-39
1.1575813 -1.1882094 2.7371261 4.5175957e-39
1.1232094 -1.1419691 2.6306083 5.0714855e-39
1.1206467 -1.1286356 2.5998938 5.3477109e-39
1.0252256 -1.022903 2.3563309 5.8079716e-39
1.0338235 -1.0219487 2.3541327 6.0860004e-39
1.0424055 -1.0209963 2.3519387 5.9948852e-39
1.0506452 -1.0197291 2.3490198 6.8228423e-39
1.0585366 -1.0181496 2.3453813 7.6511625e-39
1.064757 -1.0150052 2.3381379 7.7440868e-39
1.0755751 -1.0162607 2.3410299 6.9168443e-39
1.0847408 -1.0159465 2.3403063 6.1778373e-39
1.0966119 -1.0181496 2.3453813 6.4515445e-39
1.1081904 -1.0200456 2.3497488 5.8068982e-39
1.121556 -1.02354 2.3577983 6.5462625e-39
1.1350135 -1.0270585 2.3659034 6.2703888e-39
1.1442579 -1.0267376 2.3651643 5.6239404e-39
1.1567479 -1.0293101 2.3710902 5.9930887e-39
1.1641835 -1.0273795 2.366643 7.7458861e-39
1.1741556 -1.0277008 2.367383 8.2997773e-39
1.1859888 -1.0296326 2.3718328 8.3916058e-39
1.193745 -1.0280223 2.3681235 8.1143e-39
1.2048637 -1.0293101 2.3710902 7.0083182e-39
1.2137265 -1.0286658 2.3696058 5.9034112e-39
1.221814 -1.0273795 2.366643 7.1930668e-39
1.2279643 -1.0244973 2.3600035 8.8511504e-39
1.234464 -1.0219487 2.3541327 9.3121356e-39
1.2440183 -1.0219487 2.3541327 8.3001416e-39
1.2492995 -1.0184652 2.3461082 7.4703754e-39
1.2568738 -1.0168896 2.3424785 6.8228452e-39
1.2624747 -1.0137529 2.3352532 5.9920083e-39
1.2649293 -1.0081556 2.3223591 5.717578e-39
1.2739638 -1.0078464 2.3216469 6.2714692e-39
-1.2856349 -1.127766 2.6224077 9.8649352e-39
-1.2675279 -1.1211641 2.6070561 9.8652939e-39
-1.2161882 -1.1324732 2.6333532 9.9578469e-39
-1.2160753 -1.1424072 2.6564529 1.0050043e-38
-1.1931531 -1.1308998 2.6296947 1.0233716e-38
-1.1567656 -1.1063067 2.5725079 1.0234074e-38
-0.30255529 -1.4064192 3.2703631 1.0325549e-38
-0.27718908 -1.3476243 3.1336467 1.0141158e-38
-0.27624825 -1.4076353 3.273191 1.0141156e-38
-0.25871351 -1.3848832 3.2202854 1.0048962e-38
-0.24357185 -1.3732014 3.1931214 9.8645723e-39
-0.23109983 -1.3761033 3.1998694 9.9567693e-39
-0.21774495 -1.3737807 3.1944687 9.7727368e-39
-0.20486656 -1.3743607 3.1958172 9.3106838e-39
-0.19189626 -1.3743607 3.1958172 5.4373898e-39
-0.17900151 -1.3749411 3.1971667 3.1303354e-39
-0.16560611 -1.371466 3.1890862 3.2221681e-39
-0.15266313 -1.371466 3.1890862 3.2225282e-39
-0.14031117 -1.3772675 3.2025764 2.9466588e-39
-0.12598114 -1.362855 3.1690626 3.3154371e-39
-0.11326165 -1.3645685 3.1730473 3.5916611e-39
-0.10101882 -1.3732014 3.1931214 3.5920226e-39
-0.087104291 -1.3583064 3.1584859 3.6842169e-39
-0.075036801 -1.372044 3.1904302 3.7760523e-39
-0.061109774 -1.350419 3.1401455 3.9600835e-39
-0.043156553 -1.2049817 2.8019581 4.1441132e-39
-0.03226234 -1.223088 2.8440611 4.0522791e-39
-0.019991191 -1.1800871 2.7440705 4.1444733e-39
-0.0090044383 -1.200096 2.7905974 4.2363088e-39
0.0022825713 -1.1800871 2.7440705 4.1448307e-39
0.125094 -1.440009 3.34847 4.2359487e-39
0.13868384 -1.440009 3.34847 4.2355886e-39
0.15247601 -1.4419223 3.3529189 4.2355886e-39
0.16779307 -1.4567608 3.3874233 4.1441132e-39
0.18342863 -1.471908 3.4226451 3.6838567e-39
0.19625485 -1.463966 3.4041774 3.5916639e-39
0.20969366 -1.4613377 3.3980658 3.5913038e-39
0.22368558 -1.4626507 3.401119 3.9600807e-39
0.23558412 -1.4509182 3.3738372 3.9597233e-39
0.24949929 -1.4522125 3.376847 3.6834952e-39
0.26605234 -1.4679263 3.4133863 3.4994655e-39
0.27752826 -1.4554584 3.3843946 3.5916625e-39
0.29283479 -1.4633081 3.4026475 3.2232415e-39
0.30418369 -1.451565 3.3753414 3.2228828e-39
0.31577089 -1.4419223 3.3529189 3.0392104e-39
0.33158153 -1.451565 3.3753414 3.2236016e-39
0.34420621 -1.4470491 3.3648403 3.2228842e-39
0.35612148 -1.440009 3.34847 3.3147183e-39
0.37317738 -1.4535091 3.3798621 3.2232387e-39
0.394467 -1.4819574 3.4460132 3.1317633e-39
0.41258422 -1.4969473 3.4808693 3.1314032e-39
0.43027228 -1.5094392 3.509917 3.1314046e-39
0.44888762 -1.5242792 3.5444245 3.2228842e-39
0.46219084 -1.5207195 3.5361471 3.2232401e-39
0.48126286 -1.5357832 3.5711749 3.4072712e-39
0.50071651 -1.5511484 3.6069036 3.3150812e-39
0.51121485 -1.5386864 3.5779257 3.4998368e-39
0.52798158 -1.5452589 3.5932088 3.131406e-39
0.54881608 -1.5630631 3.6346092 3.1310459e-39
0.5731985 -1.5897756 3.6967239 3.0388502e-39
0.59108794 -1.5975763 3.7148631 2.946656e-39
0.60586751 -1.5967928 3.7130411 2.8544604e-39
0.60957658 -1.5675784 3.6451087 2.7626249e-39
0.62557507 -1.5706033 3.6521423 2.5785924e-39
0.64225632 -1.5751623 3.6627436 2.3945626e-39
0.64741206 -1.5518878 3.6086228 2.4860408e-39
0.66459191 -1.5578279 3.6224358 2.3938452e-39
0.6779961 -1.5548521 3.6155162 2.3016509e-39
0.69333196 -1.5563387 3.6189725 2.1176198e-39
0.72323102 -1.5897756 3.6967239 1.6573633e-39
0.71654207 -1.5430619 3.5881 1.3811366e-39
0.72628552 -1.532891 3.5644495 1.4729721e-39
0.73624569 -1.523566 3.5427659 1.3807778e-39
0.74057418 -1.5031673 3.4953327 1.4729721e-39
0.7593174 -1.5122436 3.516438 1.7491988e-39
0.76541221 -1.4962595 3.4792697 1.9332328e-39
0.77738941 -1.4921451 3.4697025 2.1176212e-39
0.77932775 -1.4692512 3.416467 4.1477243e-39
0.65462798 -1.1917498 2.7711899 6.7295635e-39
0.65250009 -1.1678122 2.7155275 6.6370092e-39
0.6592648 -1.1603209 2.698108 6.6373665e-39
0.67093241 -1.1615628 2.7009957 6.4529668e-39
0.68238139 -1.1623921 2.7029243 1.2177365e-38
0.69236255 -1.1607345 2.6990697 1.4025997e-38
0.70206535 -1.1586692 2.6942673 4.7052407e-39
0.71097594 -1.1553799 2.6866183 6.637728e-39
0.72316277 -1.1574335 2.6913939 6.8217591e-39
0.72455561 -1.1424072 2.6564529 6.9132345e-39
0.74001068 -1.1496682 2.6733372 6.5451695e-39
0.73123688 -1.1196219 2.6034701 6.268221e-39
0.75372589 -1.1376172 2.6453147 6.0841927e-39
0.76233107 -1.1344461 2.6379411 5.8083247e-39
0.76477659 -1.1223235 2.6097522 5.9916341e-39
0.77510113 -1.1219368 2.6088529 5.8065268e-39
0.78433788 -1.120007 2.6043656 5.2540761e-39
0.7883988 -1.110836 2.5830402 5.2544362e-39
0.80134273 -1.1142575 2.5909963 5.1629623e-39
0.82398409 -1.1308998 2.6296947 5.0704051e-39
0.83292091 -1.1285478 2.6242256 4.7016184e-39
0.84709483 -1.1332616 2.6351864 4.7008967e-39
0.86806273 -1.1468335 2.6667457 4.8849349e-39
0.88449371 -1.1541512 2.6837614 4.6090682e-39
0.89953113 -1.1594944 2.6961861 4.8867271e-39
0.90659928 -1.1545604 2.6847131 5.0700408e-39
0.92076039 -1.1586692 2.6942673 5.1636783e-39
0.92576498 -1.1512944 2.6771183 5.1636783e-39
0.94262987 -1.1586692 2.6942673 4.7948986e-39
0.97083938 -1.1796596 2.7430763 4.5175957e-39
0.99312693 -1.1930599 2.7742362 4.7941826e-39
1.018948 -1.2103571 2.8144577 4.7945413e-39
1.0759692 -1.263921 2.9390104 4.5175929e-39
1.0595173 -1.2309492 2.8623405 4.3331988e-39
1.0473752 -1.2036452 2.7988505 5.1615231e-39
1.0606951 -1.2058742 2.8040335 5.1622434e-39
1.0724725 -1.206321 2.8050725 4.4264734e-39
1.0818528 -1.2040904 2.7998857 4.615915e-39
1.0956473 -1.2067682 2.8061123 1.0604325e-38
1.1066259 -1.206321 2.8050725 5.8983721e-39
1.1155305 -1.2036452 2.7988505 3.5030836e-39
1.1256412 -1.2023119 2.7957499 3.8722263e-39
1.1328048 -1.1978883 2.7854638 3.965861e-39
1.1320312 -1.1852423 2.7560577 4.0566175e-39
1.0915594 -1.131686 2.6315227 3.7803922e-39
1.1531429 -1.1839492 2.7530513 5.0711338e-39
1.1406733 -1.1599076 2.6971467 4.9796542e-39
1.1185455 -1.1265953 2.6196854 5.1644e-39
1.0188333 -1.0165035 2.3636875 5.9927215e-39
1.0242692 -1.0123944 2.3541327 6.5455394e-39
1.033181 -1.0117652 2.3526697 6.5473415e-39
1.0440271 -1.0130244 2.3555977 6.3640278e-39
1.0535873 -1.0130244 2.3555977 7.2834604e-39
1.0648041 -1.0146028 2.359268 7.8355593e-39
1.0727079 -1.0130244 2.3555977 6.45515e-39
1.082942 -1.0136552 2.3570645 5.3505975e-39
1.0925082 -1.0136552 2.3570645 6.0856416e-39
1.1037927 -1.0152355 2.3607392 6.5451821e-39
1.1154608 -1.0171385 2.3651643 6.9150408e-39
1.1296475 -1.0212862 2.3748088 6.1781974e-39
1.1446716 -1.0261142 2.3860354 5.5328238e-39
1.1543554 -1.0261142 2.3860354 7.0072322e-39
1.1636724 -1.0257909 2.3852837 8.3901765e-39
1.1722451 -1.0248224 2.3830314 8.3919785e-39
1.1808017 -1.0238554 2.3807833 7.8391579e-39
1.1915884 -1.0248224 2.3830314 7.467853e-39
1.1989956 -1.0228904 2.3785393 6.3622257e-39
1.2101698 -1.0241776 2.3815322 6.7320943e-39
1.2183024 -1.0228904 2.3785393 7.4718173e-39
1.2267994 -1.0219274 2.3762996 8.3919687e-39
1.2318041 -1.0180928 2.367383 9.0355389e-39
1.2383145 -1.0155523 2.3614757 8.0224701e-39
1.2471206 -1.014919 2.3600035 6.6398958e-39
1.2524043 -1.0114509 2.3519387 5.5335441e-39
1.2588212 -1.0089434 2.3461082 6.0838382e-39
1.2644247 -1.0058265 2.3388603 7.0972782e-39
1.2664833 -0.99995714 2.3252122 7.6551254e-39
1.2747457 -0.99903667 2.3230717 7.9309892e-39
-1.2964121 -1.1264875 2.6443908 1.0049325e-38
-1.2199277 -1.1352108 2.6648684 1.0142241e-38
-1.1981472 -1.1249158 2.6407013 1.0234081e-38
-0.30112445 -1.3865579 3.2548971 1.0325548e-38
-0.27741873 -1.3360124 3.1362431 9.9571294e-39
-0.27600956 -1.3931464 3.2703631 1.0048964e-38
-0.25827411 -1.3694836 3.2148156 1.0233355e-38
-0.24346916 -1.3596685 3.1917751 1.0141159e-38
-0.2310022 -1.3625407 3.1985173 1.01408e-38
-0.21756135 -1.3596685 3.1917751 9.9564092e-39
-0.20469375 -1.360242 3.1931214 9.2188455e-39
-0.19173439 -1.360242 3.1931214 5.5299455e-39
-0.17885046 -1.3608159 3.1944687 3.1306941e-39
-0.16546671 -1.3573796 3.1864018 3.2221681e-39
-0.15253462 -1.3573796 3.1864018 3.2221667e-39
-0.14025185 -1.3636929 3.2012224 3.0384943e-39
-0.12587576 -1.348864 3.1664119 3.4072726e-39
-0.11326165 -1.3516906 3.1730473 3.6838581e-39
-0.10089117 -1.3585231 3.1890862 3.6838581e-39
-0.086995408 -1.3438058 3.1545379 3.7760523e-39
-0.075036801 -1.3590956 3.1904302 3.7760523e-39
-0.061415449 -1.3443658 3.1558528 3.9600835e-39
-0.048185542 -1.3326999 3.1284673 4.1441132e-39
-0.034243364 -1.2859385 3.0186965 4.0522791e-39
-0.022819899 -1.334354 3.1323504 4.1444733e-39
-0.010153384 -1.3404546 3.1466711 4.3285031e-39
0.002649396 -1.3568085 3.1850612 4.3285031e-39
0.10942312 -1.3997977 3.2859769 4.2363088e-39
0.12443358 -1.4188886 3.3307922 4.0526378e-39
0.13819487 -1.4213899 3.336664 4.1441132e-39
0.1522737 -1.4264191 3.34847 4.2359473e-39
0.16726917 -1.4385074 3.376847 4.1437545e-39
0.18326293 -1.4567 3.4195533 3.7756936e-39
0.1964315 -1.4514554 3.4072416 3.5916639e-39
0.20988205 -1.4488472 3.401119 3.683498e-39
0.23526959 -1.4353065 3.3693328 3.9597219e-39
0.24949929 -1.4385074 3.376847 3.7753321e-39
0.26557338 -1.4514554 3.4072416 3.6838581e-39
0.27715659 -1.4397919 3.3798621 3.5920226e-39
0.29296646 -1.4501501 3.4041774 3.4076314e-39
0.30310264 -1.4327561 3.3633456 3.2225226e-39
0.31661221 -1.4321198 3.3618519 3.0388502e-39
0.33261958 -1.4423676 3.3859081 3.4076328e-39
0.34512657 -1.4372253 3.3738372 3.3154371e-39
0.35675263 -1.4289472 3.3544044 3.4072726e-39
0.37401223 -1.4430128 3.3874233 3.4076314e-39
0.39663339 -1.4760338 3.4649386 3.315077e-39
0.41258422 -1.4828202 3.4808693 3.4069125e-39
0.43736914 -1.5198557 3.5678091 3.3154357e-39
0.45506594 -1.5306758 3.5932088 3.4069139e-39
0.46457773 -1.5141473 3.5544088 3.3154371e-39
0.4824006 -1.5248859 3.5796175 3.4072712e-39
0.50143319 -1.5387088 3.6120663 3.4072726e-39
0.51218301 -1.5270519 3.584702 3.3154385e-39
0.5304994 -1.5379751 3.6103437 3.4069125e-39
0.55279684 -1.5595424 3.6609724 3.3154343e-39
0.57544637 -1.5809479 3.711221 3.2232401e-39
0.59108794 -1.5824994 3.7148631 3.2228814e-39
0.60320503 -1.5747724 3.6967239 3.0388516e-39
0.60491663 -1.5409144 3.6172435 3.0388516e-39
0.61841542 -1.5379751 3.6103437 2.7626249e-39
0.64101583 -1.5572833 3.6556692 2.5785924e-39
0.64772075 -1.5379751 3.6103437 2.4863995e-39
0.66363937 -1.5409144 3.6172435 2.3942053e-39
0.67734915 -1.5387088 3.6120663 2.394564e-39
0.69266975 -1.5401785 3.6155162 2.2101756e-39
0.71936721 -1.5663593 3.6769745 1.8413945e-39
0.71688181 -1.5292242 3.5898013 1.3807778e-39
0.72560227 -1.5169961 3.5610964 1.4726147e-39
0.73728073 -1.5113091 3.5477464 1.3807778e-39
0.74125868 -1.4903575 3.4985633 1.5644488e-39
0.7593174 -1.497972 3.516438 1.7491974e-39
0.76576418 -1.4828202 3.4808693 1.8413945e-39
0.77738941 -1.4780631 3.4697025 1.9339488e-39
0.78073704 -1.4580171 3.4226451 4.0562504e-39
0.65414912 -1.1796392 2.7691627 6.4533354e-39
0.65203238 -1.1559619 2.7135808 6.4536969e-39
0.65809214 -1.1473261 2.6933086 6.4544144e-39
0.66997635 -1.1489611 2.6971467 6.3607712e-39
0.68165129 -1.1501904 2.7000325 1.0888081e-38
0.69137663 -1.1481431 2.6952264 1.3471393e-38
0.70106739 -1.146103 2.6904373 4.8885488e-39
0.70996821 -1.142854 2.6828103 6.5462541e-39
0.7221359 -1.1448824 2.6875722 6.9139548e-39
0.72430152 -1.1312289 2.6555212 6.7295607e-39
0.73922759 -1.1376133 2.6705081 6.729202e-39
0.73098552 -1.1086744 2.6025751 6.5448093e-39
0.75084007 -1.1225666 2.6351864 6.6373623e-39
0.7607407 -1.1213956 2.6324377 6.4529724e-39
0.76110357 -1.1063924 2.597218 6.4526151e-39
0.76638621 -1.0988531 2.5795197 6.2682266e-39
0.77264321 -1.0928953 2.5655339 6.1760296e-39
0.78067458 -1.0895722 2.5577333 6.1760282e-39
0.79212564 -1.0910466 2.5611944 6.083834e-39
0.81047153 -1.1018565 2.58657 6.0834738e-39
0.8190105 -1.0992275 2.580399 5.9909181e-39
0.83431727 -1.1056337 2.5954373 5.7146913e-39
0.85127121 -1.1140358 2.6151609 5.4388289e-39
0.86667478 -1.1202271 2.6296947 5.1629609e-39
0.8779574 -1.1210058 2.6315227 5.2555096e-39
0.88678807 -1.1186728 2.6260459 4.7934539e-39
0.90339971 -1.1260942 2.6434674 4.5175901e-39
0.91317171 -1.1249158 2.6407013 4.7023457e-39
0.93103337 -1.1336147 2.6611216 4.8878159e-39
0.97048777 -1.1681035 2.7420828 4.8874558e-39
1.007151 -1.198489 2.8134117 4.8863768e-39
1.0261961 -1.207463 2.8344779 4.6101486e-39
1.097267 -1.276775 2.9971855 4.6097885e-39
1.0643461 -1.2248894 2.8753858 4.609071e-39
1.0485381 -1.1936098 2.8019581 4.9778508e-39
1.0610881 -1.1949365 2.8050725 5.162242e-39
1.0716784 -1.1940517 2.8029954 4.242801e-39
1.0806538 -1.1914052 2.7967827 4.9843374e-39
1.0944304 -1.1940517 2.8029954 1.115785e-38
1.1053972 -1.1936098 2.8019581 5.0696862e-39
1.1130615 -1.1896473 2.7926562 3.5038053e-39
1.1219126 -1.1870202 2.786489 4.1491719e-39
1.1290661 -1.1826674 2.7762709 3.688914e-39
1.1275163 -1.1693741 2.7450655 4.0569763e-39
1.0896657 -1.119061 2.6269572 4.5179586e-39
1.1444039 -1.1638881 2.7321873 5.0714925e-39
1.1302047 -1.1384164 2.6723936 5.25696e-39
1.0909877 -1.088469 2.5551436 5.625018e-39
1.0445976 -1.0323732 2.4234605 6.6380896e-39
1.0444039 -1.0225536 2.4004092 7.0987132e-39
1.0438858 -1.0126009 2.3770459 6.8242871e-39
1.0525417 -1.0116479 2.3748088 6.6402518e-39
1.0618469 -1.0113307 2.3740642 7.0979887e-39
1.0735018 -1.0132371 2.3785393 6.084564e-39
1.0801013 -1.0103803 2.3718328 4.5197579e-39
1.0938395 -1.0141931 2.3807833 5.3498703e-39
1.104544 -1.0151507 2.3830314 6.1778345e-39
1.1159719 -1.0167509 2.3867877 5.5335483e-39
1.1306491 -1.0212584 2.3973689 5.624309e-39
1.1440014 -1.0245025 2.4049845 6.1789219e-39
1.15707 -1.0274398 2.4118798 7.3774595e-39
1.1653738 -1.0261323 2.4088104 8.6667549e-39
1.1747762 -1.025806 2.4080441 8.5752838e-39
1.1811681 -1.0228778 2.4011705 7.2856254e-39
1.1905357 -1.0225536 2.4004092 6.362946e-39
1.201802 -1.023852 2.4034574 6.5462611e-39
1.2084873 -1.0212584 2.3973689 7.9288368e-39
1.2182171 -1.0212584 2.3973689 8.3919785e-39
1.2256182 -1.0193217 2.3928225 8.0239135e-39
1.2322141 -1.0167509 2.3867877 8.2064971e-39
1.237609 -1.0132371 2.3785393 7.1001509e-39
1.2433561 -1.0100638 2.3710902 5.8101338e-39
1.2529793 -1.0100638 2.3710902 5.2565998e-39
1.2570906 -1.0056545 2.3607392 5.6268173e-39
1.263127 -1.0028402 2.3541327 8.0206695e-39
1.2675574 -0.99880266 2.344655 8.3901793e-39
1.2699937 -0.99326569 2.3316572 7.1948689e-39
1.2774895 -0.99173856 2.3280723 6.4558619e-39
-1.2995895 -1.1184899 2.6508722 1.0049682e-38
-1.2767607 -1.1080149 2.6260459 1.0233715e-38
-1.210817 -1.1259806 2.6686256 1.0510666e-38
-0.30112445 -1.3733479 3.2548971 1.0325909e-38
-0.27741873 -1.3232838 3.1362431 1.0049684e-38
-0.27624825 -1.3810667 3.273191 1.0049322e-38
-0.25816447 -1.3558604 3.2134511 1.0233353e-38
-0.24346916 -1.3467146 3.1917751 1.0232996e-38
-0.2310022 -1.3495594 3.1985173 1.0048608e-38
-0.21765311 -1.3472826 3.1931214 9.9564092e-39
-0.20469375 -1.3472826 3.1931214 9.4954296e-39
-0.19173439 -1.3472826 3.1931214 5.4381086e-39
-0.17885046 -1.3478512 3.1944687 3.0392174e-39
-0.16546671 -1.3444475 3.1864018 3.3143623e-39
-0.15253462 -1.3444475 3.1864018 3.2221667e-39
-0.14025185 -1.3507007 3.2012224 3.1299711e-39
-0.12587576 -1.336013 3.1664119 3.5916639e-39
-0.11330914 -1.3393741 3.1743777 3.7756936e-39
-0.10093369 -1.3461472 3.1904302 3.775695e-39
-0.086922973 -1.3298948 3.1519113 3.8675291e-39
-0.075100094 -1.3472826 3.1931214 3.9597233e-39
-0.061518025 -1.3337817 3.1611235 3.9600807e-39
-0.048465922 -1.3276838 3.1466711 4.0522763e-39
-0.034854852 -1.2964314 3.0726018 4.0522791e-39
-0.02292423 -1.3276838 3.1466711 4.0526378e-39
-0.010320676 -1.3495594 3.1985173 4.1448321e-39
0.002670744 -1.3547105 3.2107255 4.3288618e-39
0.015641855 -1.3495594 3.1985173 4.2363074e-39
0.028562784 -1.3467146 3.1917751 4.4206987e-39
0.1102365 -1.3967674 3.3104026 4.2363074e-39
0.12542684 -1.4165885 3.3573794 4.0522763e-39
0.13862254 -1.4122047 3.3469896 3.9604422e-39
0.1527466 -1.417217 3.3588691 4.1441132e-39
0.16794334 -1.4305451 3.3904572 3.9600821e-39
0.1831802 -1.4421703 3.4180093 3.7756936e-39
0.19714127 -1.4428216 3.4195533 3.7760523e-39
0.21035455 -1.4382743 3.4087756 3.8678878e-39
0.22358514 -1.4343992 3.3995917 4.0522763e-39
0.23579428 -1.4248024 3.376847 3.9600793e-39
0.25106707 -1.4337554 3.3980658 3.7756908e-39
0.26810727 -1.4513435 3.4397504 3.6838595e-39
0.27915052 -1.4363341 3.4041774 3.7760537e-39
0.29710779 -1.456638 3.4522986 3.4072726e-39
0.30719677 -1.4382743 3.4087756 3.2228814e-39
0.31902045 -1.4292649 3.3874233 3.2228828e-39
0.33790883 -1.4513435 3.4397504 3.4994683e-39
0.3539598 -1.4599667 3.4601877 3.3154357e-39
0.3702026 -1.4686929 3.4808693 3.4072698e-39
0.38274604 -1.4626406 3.4665251 3.4072726e-39
0.40764064 -1.5025433 3.5610964 3.590945e-39
0.42348778 -1.5075068 3.5728602 3.4991067e-39
0.45651612 -1.5712775 3.7239995 3.4994655e-39
0.46817577 -1.5597692 3.6967239 3.3150742e-39
0.47528848 -1.5342973 3.6363549 3.4072726e-39
0.49169987 -1.5394733 3.648622 3.499827e-39
0.50896072 -1.5469284 3.666291 3.4072712e-39
0.51757443 -1.5284245 3.6224358 3.4991081e-39
0.53176731 -1.5269632 3.6189725 3.4991053e-39
0.55172968 -1.5417023 3.6539049 3.4072698e-39
0.57152414 -1.5552129 3.6859255 3.3150756e-39
0.58591306 -1.5537 3.6823399 3.3147183e-39
0.60115027 -1.554456 3.6841319 3.1306871e-39
0.60405082 -1.5240492 3.6120663 2.9466588e-39
0.61635798 -1.5182543 3.5983322 2.8548205e-39
0.63916409 -1.5379909 3.6451087 2.7629836e-39
0.64710361 -1.521871 3.6069036 2.6707922e-39
0.66332239 -1.5255048 3.6155162 2.4864009e-39
0.67638105 -1.521871 3.6069036 2.4864009e-39
0.69366354 -1.5276935 3.6207035 2.3020111e-39
0.71658301 -1.5454316 3.6627436 1.93323e-39
0.71552473 -1.5117875 3.5830057 1.4726133e-39
0.72423965 -1.4997216 3.5544088 1.4729735e-39
0.73452711 -1.4913199 3.5344961 1.5644488e-39
0.74023247 -1.474115 3.4937198 1.564809e-39
0.7579093 -1.480949 3.509917 1.8410343e-39
0.76435846 -1.4659969 3.4744794 1.9335901e-39
0.77596694 -1.4613024 3.4633534 1.9339488e-39
0.78073704 -1.4441261 3.4226451 4.0558902e-39
0.65438849 -1.1688281 2.7701759 6.4536941e-39
0.65133202 -1.143719 2.7106662 6.5458897e-39
0.65692365 -1.1343775 2.6885266 6.4544144e-39
0.66902298 -1.1363953 2.6933086 6.4529668e-39
0.68068027 -1.1376094 2.6961861 9.3211277e-39
0.69039351 -1.1355873 2.6913939 1.3102254e-38
0.70007223 -1.1335725 2.6866183 4.7952686e-39
0.70896327 -1.1303635 2.679013 6.7302838e-39
0.72111201 -1.1323669 2.6837614 7.0061462e-39
0.72404754 -1.1200587 2.6545901 6.7295593e-39
0.73818606 -1.1251874 2.6667457 6.729202e-39
0.73098552 -1.0981117 2.6025751 6.5448121e-39
0.74979615 -1.1103257 2.6315227 6.452971e-39
0.75915688 -1.1083994 2.6269572 6.3607768e-39
0.75746566 -1.0906136 2.5848041 6.4526165e-39
0.76248932 -1.0828499 2.5664036 6.3604223e-39
0.76847661 -1.0766455 2.5516989 6.3600593e-39
0.7764774 -1.0733895 2.543982 6.3604195e-39
0.78495592 -1.0708706 2.5380123 6.4522578e-39
0.80089468 -1.078463 2.5560064 6.3604209e-39
0.81017423 -1.0770085 2.5525594 6.3604209e-39
0.82526398 -1.083217 2.5672739 6.2689441e-39
0.83909774 -1.0876429 2.5777633 6.4526179e-39
0.85129881 -1.0898694 2.5830402 6.3604209e-39
0.86266512 -1.090986 2.5856867 5.8079645e-39
0.8755514 -1.0939751 2.5927708 4.9789241e-39
0.88668156 -1.0947249 2.594548 4.6097871e-39
0.90122664 -1.0996238 2.6061587 4.6097871e-39
0.92035788 -1.1099399 2.6306083 4.7023429e-39
0.97650027 -1.1641425 2.7590709 4.9792885e-39
1.0208073 -1.2031665 2.8515596 5.0700436e-39
1.0410064 -1.2132195 2.8753858 4.9782095e-39
1.1131312 -1.2828944 3.0405183 5.2551593e-39
1.0708534 -1.2206371 2.8929656 4.9789326e-39
1.050482 -1.1844298 2.8071527 5.1622392e-39
1.0614814 -1.1839908 2.8061123 5.9902034e-39
1.0716784 -1.1826757 2.8029954 5.2547978e-39
1.0810531 -1.1804905 2.7978163 5.5342811e-39
1.0944304 -1.1826757 2.8029954 9.0413038e-39
1.1049882 -1.1818006 2.8009214 3.5055975e-39
1.112241 -1.1774446 2.7905974 3.0431887e-39
1.1210873 -1.1748463 2.7844393 3.6885539e-39
1.1274124 -1.1696841 2.7722046 4.5179544e-39
1.1254759 -1.1561372 2.740098 5.0711282e-39
1.0855225 -1.104185 2.6169689 5.4395506e-39
1.125317 -1.1335725 2.6866183 5.7172207e-39
1.102952 -1.1003814 2.607954 5.6264628e-39
1.0595204 -1.0470033 2.4814458 6.1785519e-39
1.0462723 -1.0241767 2.4273455 7.1901857e-39
1.0473926 -1.0157098 2.4072785 7.1905501e-39
1.0528108 -1.0115285 2.3973689 6.9161226e-39
1.0622042 -1.0112083 2.39661 6.0863591e-39
1.0712527 -1.0105685 2.3950937 5.7157745e-39
1.0837159 -1.0131326 2.4011705 5.1640427e-39
1.0917299 -1.0115285 2.3973689 5.7175808e-39
1.102507 -1.0124904 2.3996484 6.1781918e-39
1.1179154 -1.0176512 2.4118798 5.6232202e-39
1.1320317 -1.0215565 2.4211354 5.9005287e-39
1.1458889 -1.0251627 2.4296825 7.46786e-39
1.1576073 -1.0268104 2.4335876 7.7466049e-39
1.1716268 -1.0304539 2.4422228 8.0221086e-39
1.1777395 -1.0271405 2.43437 7.8362768e-39
1.1876194 -1.0271405 2.43437 6.2707546e-39
1.1940439 -1.0241767 2.4273455 5.7175808e-39
1.2042814 -1.0245051 2.428124 6.6402546e-39
1.2133578 -1.0238484 2.4265676 8.2983354e-39
1.2200776 -1.0212299 2.4203615 8.8507973e-39
1.22833 -1.0199256 2.4172704 8.2065055e-39
1.2326307 -1.0153869 2.4065132 7.0079595e-39
1.2380687 -1.0118489 2.3981283 6.3615069e-39
1.2438616 -1.008654 2.3905559 5.5324651e-39
1.2496179 -1.0054791 2.3830314 5.4413554e-39
1.2584972 -1.0048466 2.3815322 6.5487778e-39
1.2614173 -0.99950159 2.3688645 8.0228289e-39
1.2658823 -0.99545252 2.359268 8.4816504e-39
1.2691295 -0.99051386 2.347563 6.9150464e-39
1.2715602 -0.98501605 2.334533 5.4409939e-39
1.2790629 -0.98349971 2.3309393 6.0856416e-39
-1.2946033 -1.1034812 2.6407013 1.0234431e-38
-1.2120987 -1.1163304 2.6714506 1.0602497e-38
-0.30347291 -1.3707454 3.280282 1.0325908e-38
-0.27810997 -1.3138208 3.1440575 1.0234071e-38
-0.27660701 -1.3695587 3.277442 1.0233714e-38
-0.25794551 -1.3416796 3.2107255 1.0233714e-38
-0.24336655 -1.3331987 3.1904302 1.0141161e-38
-0.23090464 -1.3360137 3.1971667 1.0048968e-38
-0.21746968 -1.3331987 3.1904302 9.8645737e-39
-0.20460746 -1.3337607 3.1917751 9.4947121e-39
-0.19165355 -1.3337607 3.1917751 5.5299455e-39
-0.17869964 -1.3337607 3.1917751 3.0388587e-39
-0.16532755 -1.3303955 3.183722 3.1303326e-39
-0.15234227 -1.3298362 3.1823838 3.1303326e-39
-0.14013334 -1.3365781 3.1985173 2.9466602e-39
-0.12571803 -1.321504 3.1624439 3.5916639e-39
-0.11326165 -1.3259348 3.1730473 3.6838581e-39
-0.10072146 -1.3303955 3.183722 3.592024e-39
-0.086634427 -1.3127304 3.1414485 3.8678892e-39
-0.0748161 -1.3292775 3.1810465 4.051919e-39
-0.061135132 -1.3127304 3.1414485 4.0515588e-39
-0.047459915 -1.2876192 3.0813556 4.0519176e-39
-0.034756113 -1.280324 3.0638976 4.0522777e-39
-0.022801032 -1.3078464 3.1297605 4.1444733e-39
-0.010264304 -1.3292775 3.1810465 4.2363088e-39
0.0026605891 -1.3365781 3.1985173 4.2363074e-39
0.028562784 -1.3337607 3.1917751 4.4203386e-39
0.11047803 -1.386363 3.3176558 4.3285017e-39
0.12537125 -1.4023407 3.3558912 4.236306e-39
0.13783041 -1.3906288 3.3278642 3.9604408e-39
0.15213913 -1.3980029 3.3455107 4.1441146e-39
0.16764304 -1.4142514 3.3843946 4.0522763e-39
0.1831802 -1.4282982 3.4180093 3.9597233e-39
0.19705229 -1.4282982 3.4180093 3.7756908e-39
0.21044931 -1.4250813 3.4103112 3.8678878e-39
0.23558412 -1.4098397 3.3738372 3.9600807e-39
0.25163177 -1.423158 3.4057088 3.6838539e-39
0.26920807 -1.4432849 3.4538736 3.6838581e-39
0.28053805 -1.429589 3.4210985 3.7760523e-39
0.31111905 -1.4426267 3.4522986 3.4072726e-39
0.32632068 -1.4479086 3.4649386 3.2228828e-39
0.34336904 -1.4606097 3.4953327 3.4994669e-39
0.36173004 -1.4776648 3.5361471 3.4994655e-39
0.37678552 -1.4804307 3.5427659 3.4072698e-39
0.38879874 -1.4714793 3.5213447 3.4991081e-39
0.41525826 -1.5158986 3.6276429 3.5913038e-39
0.43519428 -1.5342777 3.6716249 3.4994669e-39
0.46105182 -1.5716246 3.760999 3.5916611e-39
0.47372726 -1.5630833 3.7405586 3.4994655e-39
0.49818227 -1.5447658 3.6967239 3.4994669e-39
0.51927072 -1.5630833 3.7405586 3.4991067e-39
0.52536696 -1.5365131 3.6769745 3.5913024e-39
0.53380865 -1.5180808 3.632865 3.591301e-39
0.55575299 -1.538007 3.6805496 3.4994655e-39
0.58114386 -1.5661784 3.7479658 3.4994655e-39
0.59254164 -1.5561635 3.7239995 3.3150756e-39
0.59998244 -1.5365131 3.6769745 3.1310459e-39
0.60694653 -1.5166253 3.6293819 3.038853e-39
0.61548036 -1.5015094 3.5932088 2.9466574e-39
0.64256722 -1.5313071 3.6645164 2.8548219e-39
0.64710361 -1.5072322 3.6069036 2.7629864e-39
0.66174233 -1.5072322 3.6069036 2.5785966e-39
0.67349327 -1.5007972 3.5915041 2.3942067e-39
0.69134909 -1.5079507 3.6086228 2.3023698e-39
0.71244687 -1.5217319 3.641602 1.9335901e-39
0.71148413 -1.4887908 3.562772 1.4729721e-39
0.72119236 -1.4790465 3.5394533 1.4729721e-39
0.73111385 -1.4701117 3.5180719 1.4729721e-39
0.73818856 -1.4559045 3.4840732 1.564809e-39
0.7561565 -1.4633119 3.5017996 1.7491988e-39
0.76365751 -1.4505641 3.4712934 1.9335901e-39
0.77525765 -1.4459234 3.4601877 2.0257871e-39
0.7814436 -1.4315296 3.4257424 3.9636932e-39
0.80629218 -1.4512296 3.4728856 6.4529752e-39
0.65414912 -1.1571618 2.7691627 6.3614999e-39
0.65086597 -1.1319071 2.7087266 6.5458897e-39
0.65645742 -1.1226687 2.6866183 6.5458911e-39
0.66830975 -1.1242646 2.6904373 6.2685812e-39
0.68019581 -1.125865 2.6942673 8.6764912e-39
0.68965799 -1.1234661 2.6885266 1.3007899e-38
0.69957572 -1.1218725 2.6847131 4.8856565e-39
0.70846188 -1.1186988 2.6771183 6.8217591e-39
0.72085643 -1.1210774 2.6828103 6.9139506e-39
0.72379375 -1.108896 2.6536596 6.7295621e-39
0.73766637 -1.1135799 2.6648684 6.7295621e-39
0.72998178 -1.0860558 2.5990014 6.5448121e-39
0.74668175 -1.095078 2.6205921 6.452971e-39
0.75340569 -1.0894216 2.6070561 6.4526137e-39
0.75105512 -1.0709819 2.5629284 6.5448121e-39
0.75329655 -1.0595045 2.5354624 6.452255e-39
0.76103812 -1.0559682 2.5269995 6.452255e-39
0.76668775 -1.0496618 2.5119081 6.3604209e-39
0.77636719 -1.0489657 2.5102422 6.2682252e-39
0.79154158 -1.0556158 2.5261564 6.3604195e-39
0.80206168 -1.0559682 2.5269995 6.4526151e-39
0.816679 -1.0616378 2.5405674 6.5451695e-39
0.82810152 -1.0630647 2.543982 6.3604223e-39
0.8412531 -1.0666488 2.5525594 5.8079688e-39
0.85075223 -1.0655711 2.5499802 4.8870943e-39
0.86518109 -1.0706195 2.5620611 4.9792885e-39
0.86561948 -1.0584412 2.5329177 5.3466347e-39
0.88959002 -1.0749849 2.5725079 5.346992e-39
0.91400623 -1.0916772 2.6124537 4.9789298e-39
0.9822275 -1.159707 2.7752533 5.163321e-39
1.0293366 -1.2015498 2.8753858 5.9905621e-39
1.0554371 -1.2182058 2.9152448 5.806894e-39
1.1185217 -1.2767072 3.0552425 5.3477165e-39
1.0757864 -1.2144647 2.906292 5.2558768e-39
1.0500927 -1.1726021 2.8061123 5.6235747e-39
1.0606951 -1.1717335 2.8040335 6.1749548e-39
1.0712818 -1.1708663 2.8019581 5.3462787e-39
1.0802548 -1.168272 2.7957499 5.0725799e-39
1.0928121 -1.1695676 2.7988505 6.6431314e-39
1.1033554 -1.1687036 2.7967827 3.2279359e-39
1.1106036 -1.1644021 2.786489 3.0431873e-39
1.1194406 -1.1618364 2.7803493 4.1495306e-39
1.125352 -1.1563159 2.7671385 4.7030645e-39
1.1222266 -1.1417108 2.7321873 5.6242992e-39
1.0829022 -1.0909243 2.610652 6.1767583e-39
1.115814 -1.113188 2.6639307 6.270393e-39
1.0942823 -1.0812305 2.5874541 5.8119302e-39
1.0595204 -1.0369323 2.4814458 6.4558563e-39
1.0595205 -1.027169 2.4580815 7.3749357e-39
1.0677633 -1.0255042 2.4540975 6.7302922e-39
1.0694038 -1.0175878 2.435153 5.3495171e-39
1.0761716 -1.0146506 2.428124 5.7172193e-39
1.085678 -1.0143253 2.4273455 6.4533424e-39
1.0958809 -1.0146506 2.428124 6.269314e-39
1.1046726 -1.0136752 2.4257901 6.3622327e-39
1.117023 -1.0159539 2.4312429 5.3484395e-39
1.1312497 -1.0198841 2.4406483 6.5466156e-39
1.1422598 -1.0208714 2.4430108 8.0206709e-39
1.1547832 -1.0231825 2.4485416 8.2065041e-39
1.162465 -1.0212009 2.4437995 7.4696593e-39
1.1742784 -1.0228517 2.4477501 7.0075979e-39
1.1819198 -1.0208714 2.4430108 5.9930831e-39
1.1949196 -1.0235136 2.4493339 6.5459037e-39
1.2013623 -1.0205421 2.4422228 7.4700194e-39
1.2108835 -1.020213 2.4414353 8.0228275e-39
1.2188269 -1.0185707 2.437505 8.3905282e-39
1.2247763 -1.0153018 2.4296825 7.7444455e-39
1.2322644 -1.0133506 2.4250131 6.3625901e-39
1.2369558 -1.0091485 2.4149573 5.3487955e-39
1.2423977 -1.00562 2.4065132 5.8076114e-39
1.248197 -1.0024337 2.3988881 6.7306509e-39
1.253168 -0.99863648 2.3898013 7.7458903e-39
1.2616723 -0.99769175 2.3875403 7.5625724e-39
1.2626024 -0.99081755 2.3710902 6.9154037e-39
1.2666718 -0.98649222 2.3607392 6.5462625e-39
1.2691295 -0.98098618 2.347563 6.4537095e-39
1.2711681 -0.97524059 2.3338134 7.0987174e-39
1.2790629 -0.97403955 2.3309393 8.2976207e-39
-1.2768183 -1.0689027 2.5830402 1.0510662e-38
-1.2918997 -1.0904816 2.6351864 1.0603213e-38
-1.2710294 -1.0818211 2.6142578 1.0695052e-38
-1.2595495 -1.0810745 2.6124537 1.0694696e-38
-1.2498093 -1.0818211 2.6142578 1.0603221e-38
-1.2409133 -1.0833174 2.6178737 1.0695419e-38
-1.2358439 -1.088209 2.6296947 1.0970927e-38
-1.2302992 -1.0927638 2.6407013 1.0879443e-38
-1.2161882 -1.0897231 2.6333532 1.0787606e-38
-1.2059201 -1.0901022 2.6342695 1.0879803e-38
-1.2036047 -1.0977414 2.6527297 1.0787247e-38
-1.1861886 -1.0916215 2.6379411 1.097164e-38
-1.1718078 -1.088209 2.6296947 1.0971641e-38
-1.2087092 -1.1760337 2.8419259 1.0879802e-38
-1.4216725 -1.8396676 4.4456201 1.1157112e-38
-1.5090792 -1.9778749 4.7796025 1.1248949e-38
-1.4762206 -2.0396836 4.9289656 1.1157113e-38
-0.30347291 -1.3574324 3.280282 1.0326266e-38
-0.27857271 -1.3032254 3.1492889 1.0326628e-38
-0.27768889 -1.3615619 3.290261 1.0233359e-38
-0.25805494 -1.3292124 3.2120876 1.0233715e-38
-0.24367462 -1.3219215 3.1944687 1.0049324e-38
-0.23119755 -1.3247162 3.2012224 1.0049326e-38
-0.21774495 -1.3219215 3.1944687 9.9567707e-39
-0.20486656 -1.3224795 3.1958172 9.4947149e-39
-0.19189626 -1.3224795 3.1958172 5.4373884e-39
-0.17900151 -1.323038 3.1971667 3.0384985e-39
-0.16560611 -1.3196942 3.1890862 3.2221681e-39
-0.15266313 -1.3196942 3.1890862 3.130334e-39
-0.14031117 -1.3252766 3.2025764 3.038853e-39
-0.12587576 -1.3103111 3.1664119 3.5916611e-39
-0.11354718 -1.3163671 3.1810465 3.5920212e-39
-0.10110411 -1.3224795 3.1958172 3.5920226e-39
-0.086959176 -1.3048537 3.153224 3.7760509e-39
-0.075578235 -1.3297766 3.2134511 3.9597233e-39
-0.062114529 -1.3208069 3.1917751 3.9597233e-39
-0.049515504 -1.3303413 3.2148156 4.051919e-39
-0.035197686 -1.2839974 3.102824 4.2359487e-39
-0.023223452 -1.3191384 3.1877434 4.1441104e-39
-0.010457638 -1.3411617 3.2409635 4.2363074e-39
0.002691288 -1.3388691 3.2354233 4.3285017e-39
0.015835872 -1.3400145 3.2381911 4.3281415e-39
0.028842455 -1.3337394 3.2230272 4.2363032e-39
0.11028472 -1.370496 3.3118508 4.1444705e-39
0.12537125 -1.3887206 3.3558912 4.1437517e-39
0.1376489 -1.375309 3.3234816 4.1437531e-39
0.15288225 -1.3911873 3.3618519 4.2355872e-39
0.16794334 -1.4030246 3.3904572 4.1437517e-39
0.182275 -1.4074366 3.401119 4.1441118e-39
0.25299749 -1.416985 3.4241929 3.8682452e-39
0.41053718 -1.4841088 3.5864003 3.5913038e-39
0.4337219 -1.5142357 3.6592028 3.5913024e-39
0.45809343 -1.5463741 3.7368662 3.5916611e-39
0.49818227 -1.5297626 3.6967239 3.5913024e-39
0.52550197 -1.5664769 3.7854455 3.5913024e-39
0.52282774 -1.5142357 3.6592028 3.5913024e-39
0.52499163 -1.4785058 3.5728602 3.5916597e-39
0.55494362 -1.5208514 3.6751897 3.4994655e-39
0.57686019 -1.539535 3.7203395 3.5916611e-39
0.58820176 -1.5297626 3.6967239 3.4072698e-39
0.59593046 -1.5113139 3.6521423 3.315077e-39
0.60869735 -1.5062279 3.6398513 3.2232429e-39
0.61431414 -1.4841088 3.5864003 3.038853e-39
0.64163548 -1.5142357 3.6592028 3.038853e-39
0.64587277 -1.4897546 3.6000431 2.7626277e-39
0.65985614 -1.4883391 3.5966227 2.6707908e-39
0.67253613 -1.4841088 3.5864003 2.5782378e-39
0.69167882 -1.4940171 3.6103437 2.3023712e-39
0.7097159 -1.5011758 3.6276429 1.9339488e-39
0.70948088 -1.4701802 3.5527408 1.4733308e-39
0.71917504 -1.4605845 3.5295527 1.4729721e-39
0.72840607 -1.4504416 3.5050421 1.4726133e-39
0.73717082 -1.4397765 3.4792697 1.4726133e-39
0.75476009 -1.4464238 3.4953327 1.8413945e-39
0.76330751 -1.4358175 3.4697025 1.9332328e-39
0.7745496 -1.4305725 3.4570277 1.9335943e-39
0.78179735 -1.418268 3.4272933 4.1477271e-39
0.80518413 -1.4351598 3.4681129 6.4529766e-39
0.65462798 -1.146762 2.7711899 6.4536969e-39
0.65109891 -1.1213149 2.7096961 6.6373693e-39
0.65575927 -1.1105827 2.6837614 6.5448135e-39
0.66783512 -1.1125547 2.6885266 5.9927159e-39
0.68019581 -1.1149302 2.6942673 7.9382269e-39
0.68941319 -1.1121597 2.6875722 1.1989445e-38
0.69932777 -1.1105827 2.6837614 5.1615231e-39
0.70846188 -1.1078337 2.6771183 6.7302838e-39
0.72060108 -1.1097959 2.68186 6.9143121e-39
0.72379375 -1.0981262 2.6536596 6.7292048e-39
0.73714745 -1.1019887 2.6629937 6.7292006e-39
0.72923076 -1.0744011 2.5963275 6.5448093e-39
0.74180317 -1.0773569 2.6034701 6.4529752e-39
0.74723023 -1.0699979 2.5856867 6.4526165e-39
0.74077356 -1.0460614 2.5278432 6.2685826e-39
0.74358463 -1.0356872 2.5027738 6.4522564e-39
0.74977642 -1.030238 2.4896057 6.4522564e-39
0.75639832 -1.0255167 2.4781966 6.4522564e-39
0.76796442 -1.0275348 2.4830735 6.3604195e-39
0.78240442 -1.0332961 2.4969957 6.3604209e-39
0.78837818 -1.027872 2.4838881 6.3607796e-39
0.80187923 -1.0322747 2.4945273 6.0845528e-39
0.81227094 -1.0326149 2.4953496 5.2547936e-39
0.82266957 -1.0329554 2.4961724 4.3339205e-39
0.82734472 -1.0261886 2.47982 4.7027002e-39
0.84154379 -1.0312554 2.492064 5.071124e-39
0.84858537 -1.0275348 2.4830735 4.9785696e-39
0.87123573 -1.0425802 2.5194311 5.4388317e-39
0.90402389 -1.0692675 2.5839217 5.4402722e-39
0.98007196 -1.1459231 2.7691627 5.5313861e-39
1.0312951 -1.1921438 2.8808565 5.8987266e-39
1.0578811 -1.2091678 2.9219956 5.9912852e-39
1.1198775 -1.2658399 3.0589457 5.9005329e-39
1.0716724 -1.1980703 2.8951781 5.3487927e-39
1.0473752 -1.1582085 2.7988505 5.8086834e-39
1.0587344 -1.1582085 2.7988505 6.4522592e-39
1.069303 -1.1573527 2.7967827 5.9909293e-39
1.0786614 -1.155219 2.7916265 5.7150627e-39
1.0899913 -1.155219 2.7916265 7.1919864e-39
1.1009153 -1.1547931 2.7905974 4.2417262e-39
1.1073431 -1.1497078 2.7783086 3.8729465e-39
1.1169794 -1.1480227 2.7742362 4.2420878e-39
1.1188093 -1.138428 2.7510505 4.8878159e-39
1.1165853 -1.1249385 2.7184527 5.8094093e-39
1.0802946 -1.0777274 2.6043656 6.5448177e-39
1.1033901 -1.0901022 2.6342695 6.638814e-39
1.0909266 -1.0674459 2.5795197 6.3640236e-39
1.0764557 -1.0432746 2.5211091 6.4551346e-39
1.0780717 -1.0350029 2.5011201 6.3611411e-39
1.090745 -1.0374019 2.5069175 4.978934e-39
1.0990996 -1.0356872 2.5027738 4.611229e-39
1.1008868 -1.027872 2.4838881 5.7172151e-39
1.1055272 -1.0228384 2.471724 5.9923656e-39
1.1188463 -1.0258526 2.4790082 5.8994511e-39
1.1329882 -1.0295609 2.4879694 5.994525e-39
1.1408362 -1.0275348 2.4830735 6.9168443e-39
1.1550812 -1.0312554 2.492064 7.9302717e-39
1.1644286 -1.0305769 2.4904246 8.0206723e-39
1.1749226 -1.030916 2.4912441 7.1919892e-39
1.1826984 -1.0288846 2.4863353 6.2700329e-39
1.193181 -1.0292227 2.4871521 5.9941663e-39
1.1981583 -1.0248458 2.4765754 7.7444413e-39
1.2105855 -1.0268613 2.4814458 8.5738489e-39
1.2142886 -1.0215043 2.4685004 7.8395208e-39
1.2215191 -1.0191782 2.4628792 7.285261e-39
1.2255346 -1.0142292 2.4509196 6.63917e-39
1.2318925 -1.0112827 2.4437995 5.9001714e-39
1.2382135 -1.0083534 2.4367206 5.5328294e-39
1.2425044 -1.0038301 2.4257901 5.9952425e-39
1.245962 -0.99871016 2.4134176 7.6518856e-39
1.2505745 -0.99458849 2.4034574 8.2061453e-39
1.255546 -0.99081397 2.3943362 6.5477072e-39
1.2632658 -0.98924971 2.3905559 6.0863605e-39
1.262998 -0.98150182 2.3718328 7.099432e-39
1.2670668 -0.97721577 2.3614757 8.4838084e-39
1.268343 -0.97085649 2.3461082 7.7466035e-39
1.2715602 -0.96606654 2.334533 7.9320696e-39
1.2794567 -0.96487647 2.3316572 7.3771021e-39
-1.290552 -1.0786604 2.6324377 1.0971281e-38
-1.2701522 -1.0704718 2.6124537 1.097164e-38
-1.2417721 -1.0734349 2.6196854 1.0971644e-38
-1.2410165 -1.0820464 2.6407013 1.1063478e-38
-1.231158 -1.0828018 2.6425447 1.1155671e-38
-1.2234224 -1.0854539 2.6490171 1.1156029e-38
-1.2113997 -1.0843157 2.6462393 1.0880522e-38
-1.2151 -1.0973566 2.6780653 1.0880882e-38
-1.191169 -1.0854539 2.6490171 1.1156752e-38
-1.1874814 -1.091949 2.6648684 1.124823e-38
-1.1871122 -1.1016432 2.6885266 1.1247872e-38
-1.2018074 -1.1256267 2.7470577 1.124823e-38
-1.1976112 -1.1321996 2.7630987 1.0972363e-38
-1.1929277 -1.138432 2.7783086 1.1156396e-38
-1.1943625 -1.1506777 2.8081939 1.1156393e-38
-1.4317613 -1.8345518 4.4771676 1.143334e-38
-0.30255529 -1.3400549 3.2703631 1.0326266e-38
-0.2789208 -1.2920563 3.153224 1.0418464e-38
-0.27853626 -1.3523222 3.3003011 1.0233718e-38
-0.25805494 -1.3161762 3.2120876 1.0234075e-38
-0.24377748 -1.3095092 3.1958172 1.0325909e-38
-0.23119755 -1.3117239 3.2012224 1.0049324e-38
-0.21783687 -1.3095092 3.1958172 9.8649352e-39
-0.20495307 -1.3100622 3.1971667 9.4950709e-39
-0.19189626 -1.3095092 3.1958172 5.4370282e-39
-0.17900151 -1.3100622 3.1971667 3.1303354e-39
-0.16567591 -1.3073018 3.1904302 3.1303312e-39
-0.15272745 -1.3073018 3.1904302 3.1306913e-39
-0.14037055 -1.3128341 3.2039318 3.0384929e-39
-0.12587576 -1.2974601 3.1664119 3.5916611e-39
-0.11354718 -1.3034568 3.1810465 3.6838553e-39
-0.10110411 -1.3095092 3.1958172 3.5920226e-39
-0.08703167 -1.2931335 3.1558528 3.7760523e-39
-0.0760625 -1.3251718 3.2340415 3.9597233e-39
-0.062430367 -1.3145031 3.2080045 3.9600835e-39
-0.051437587 -1.3684283 3.3396077 4.051919e-39
-0.036130566 -1.3051019 3.1850612 4.3281443e-39
-0.023794521 -1.3383206 3.2661307 4.2359459e-39
-0.010862179 -1.3793807 3.3663366 4.3281429e-39
0.0027524538 -1.3558685 3.3089557 4.4203372e-39
0.016153695 -1.3535023 3.3031809 4.3281415e-39
0.029291365 -1.3412136 3.273191 4.3285003e-39
0.042410672 -1.3360151 3.2605042 4.4206973e-39
0.055310033 -1.3280082 3.2409635 4.4203386e-39
0.11033298 -1.3576486 3.3133001 4.2363074e-39
0.12526019 -1.3738827 3.3529189 4.1441118e-39
0.13722721 -1.3576486 3.3133001 4.1441118e-39
0.15267886 -1.3757105 3.3573794 4.1437531e-39
0.16786817 -1.3886424 3.3889394 4.2359473e-39
0.18235692 -1.3942595 3.4026475 4.3281429e-39
0.3937501 -1.4094626 3.4397504 3.5913038e-39
0.52973986 -1.5636226 3.8159733 3.5916611e-39
0.52818877 -1.5147593 3.6967239 3.5916597e-39
0.52277124 -1.4578135 3.5577495 3.6834966e-39
0.56176114 -1.524436 3.7203395 3.6834966e-39
0.58549154 -1.5472455 3.7760053 3.591301e-39
0.59458894 -1.5312079 3.7368662 3.4991081e-39
0.59969121 -1.5059355 3.6751897 3.3150798e-39
0.60752904 -1.4885927 3.632865 3.3150784e-39
0.61548036 -1.4723432 3.5932088 3.222524e-39
0.64132553 -1.4986604 3.6574352 3.0388544e-39
0.64556581 -1.4744426 3.5983322 2.9466588e-39
0.65798062 -1.4695534 3.5864003 2.7622676e-39
0.6699971 -1.4640052 3.5728602 2.4864009e-39
0.69101977 -1.4779549 3.6069036 2.4864023e-39
0.70431626 -1.4751437 3.6000431 2.0257857e-39
0.7025575 -1.4415554 3.5180719 1.4729735e-39
0.71517402 -1.4382138 3.509917 1.4729735e-39
0.72371531 -1.4269674 3.4824705 1.4726133e-39
0.73514378 -1.4217356 3.4697025 1.5648076e-39
0.75198269 -1.4269674 3.4824705 1.7492002e-39
0.7619108 -1.4191341 3.4633534 2.0250697e-39
0.77313751 -1.4139595 3.4507251 1.8417574e-39
0.7821514 -1.4049941 3.4288454 4.0562518e-39
0.80334413 -1.4178369 3.4601877 6.2693042e-39
0.65606886 -1.1380143 2.7772894 6.453334e-39
0.65226614 -1.112308 2.7145538 6.7292048e-39
0.65552694 -1.0993009 2.6828103 6.7288446e-39
0.66736114 -1.1008613 2.6866183 5.7164962e-39
0.67995387 -1.1036026 2.6933086 7.8435285e-39
0.68916851 -1.1008613 2.6866183 1.1524511e-38
0.69907993 -1.0993009 2.6828103 5.4373884e-39
0.7079612 -1.0961933 2.6752264 6.7302824e-39
0.72009093 -1.0981336 2.6799614 6.8221165e-39
0.72354013 -1.0869752 2.6527297 6.8217577e-39
0.73585331 -1.0892651 2.6583183 6.7292006e-39
0.72873092 -1.0631348 2.594548 6.3607768e-39
0.73648465 -1.0591421 2.5848041 6.5451695e-39
0.73740822 -1.045577 2.5516989 6.4529766e-39
0.73149252 -1.0228246 2.4961724 6.2682224e-39
0.73580092 -1.0147946 2.4765754 6.3604195e-39
0.74124515 -1.0085263 2.461278 6.4522564e-39
0.75050235 -1.0075437 2.4588797 6.3600593e-39
0.76023489 -1.0072166 2.4580815 6.3604195e-39
0.77271992 -1.0104975 2.4660883 6.3600607e-39
0.77993405 -1.0068897 2.4572835 5.7157717e-39
0.79222119 -1.0098395 2.4644828 5.1625993e-39
0.80222332 -1.0098395 2.4644828 5.070761e-39
0.81328446 -1.0111562 2.4676957 4.7016198e-39
0.81532711 -1.0013645 2.4437995 4.6097815e-39
0.83358657 -1.0114858 2.4685004 4.9782081e-39
0.84719604 -1.0157914 2.4790082 5.6224971e-39
0.87210637 -1.0333868 2.5219491 5.8990924e-39
0.90279144 -1.0573372 2.580399 5.2558782e-39
0.9825877 -1.1375971 2.7762709 5.1636769e-39
1.0309027 -1.1800027 2.8797607 5.9909195e-39
1.0513886 -1.1899606 2.9040625 6.2678707e-39
1.1104554 -1.2428795 3.0332096 5.9005315e-39
1.0675899 -1.1818008 2.8841488 5.4409897e-39
1.0477625 -1.1472733 2.7998857 5.8086862e-39
1.0595179 -1.1476978 2.8009214 6.6362903e-39
1.0700936 -1.1468493 2.7988505 6.268235e-39
1.0794575 -1.1447333 2.7936866 5.9023294e-39
1.0903934 -1.1443111 2.7926562 6.5498512e-39
1.1013212 -1.1438891 2.7916265 4.1513327e-39
1.1073431 -1.138432 2.7783086 4.0576979e-39
1.1165701 -1.1363469 2.7732201 4.7034233e-39
1.117591 -1.1260352 2.7480547 5.1651217e-39
1.1153837 -1.112707 2.7155275 6.2700301e-39
1.0806664 -1.0675248 2.6052618 7.0057987e-39
1.1037742 -1.0797867 2.6351864 7.0068791e-39
1.0954053 -1.0613161 2.5901098 5.9948809e-39
1.0869524 -1.0431161 2.5456929 5.0729232e-39
1.0906829 -1.0368407 2.5303779 5.53067e-39
1.1053858 -1.0410159 2.5405674 5.7157787e-39
1.1145748 -1.0399688 2.5380123 5.9008861e-39
1.1203684 -1.035802 2.5278432 5.3480696e-39
1.1268651 -1.0323551 2.5194311 5.5317462e-39
1.1344477 -1.0299559 2.513576 7.1909074e-39
1.1469338 -1.0320117 2.5185931 7.7455217e-39
1.1544672 -1.0296141 2.5127418 7.3774595e-39
1.1638926 -1.028931 2.5110748 7.1001509e-39
1.1733056 -1.028249 2.5094104 6.3615097e-39
1.1842752 -1.028931 2.5110748 5.7172165e-39
1.1924889 -1.0272275 2.5069175 6.639893e-39
1.199882 -1.024852 2.5011201 7.7458847e-39
1.2056516 -1.0211413 2.492064 8.4820078e-39
1.2173686 -1.0224875 2.4953496 7.6536932e-39
1.2214572 -1.0174572 2.4830735 6.1799981e-39
1.2279103 -1.0144628 2.4757655 5.5335455e-39
1.2327178 -1.0101684 2.4652851 5.2565984e-39
1.2394943 -1.0075437 2.4588797 6.6362987e-39
1.2446229 -1.0036322 2.4493339 7.0076022e-39
1.2477015 -0.9981426 2.4359365 7.5622095e-39
1.2499466 -0.99207777 2.4211354 7.4674971e-39
1.2533597 -0.98702741 2.4088104 6.1774842e-39
1.2579329 -0.98296171 2.3988881 5.4409981e-39
1.2656636 -0.98140687 2.3950937 6.453341e-39
1.2657738 -0.97401166 2.3770459 8.8493455e-39
1.2686497 -0.96884048 2.3644257 7.4700138e-39
1.2699171 -0.96252781 2.3490198 5.8115701e-39
1.2727375 -0.95747751 2.3366947 6.0863577e-39
1.2794567 -0.95541334 2.3316572 6.3615125e-39
-1.2941519 -1.0709555 2.6397805 1.10642e-38
-1.2688388 -1.058773 2.6097522 1.1156396e-38
-1.2478168 -1.0679765 2.6324377 1.1156033e-38
-1.2488573 -1.0780977 2.6573853 1.1340424e-38
-1.231158 -1.0720769 2.6425447 1.1524815e-38
-1.2204332 -1.0720769 2.6425447 1.1524454e-38
-1.2080218 -1.0705823 2.6388605 1.1432977e-38
-1.2198465 -1.0907317 2.6885266 1.1248591e-38
-1.2029545 -1.0853359 2.6752264 1.1340788e-38
-1.1980237 -1.0907317 2.6885266 1.1340786e-38
-1.2020525 -1.104459 2.7223628 1.1340784e-38
-1.2022437 -1.1148822 2.7480547 1.1341143e-38
-1.1910906 -1.1148822 2.7480547 1.1341143e-38
-1.1846676 -1.1193515 2.7590709 1.1341144e-38
-1.1895092 -1.1346511 2.7967827 1.1432981e-38
-1.1746868 -1.1313077 2.7885418 1.1433334e-38
-1.4995931 -1.8785936 4.6305141 1.1893238e-38
-1.4549929 -1.8458537 4.5498142 1.1709208e-38
-1.471004 -1.8901541 4.6590099 1.1709571e-38
-0.58759922 -1.2552106 3.0939481 1.1156752e-38
-0.58387077 -1.2744815 3.1414485 1.124895e-38
-0.57469809 -1.2824637 3.1611235 1.1064557e-38
-0.55354804 -1.2634721 3.1143112 1.1156394e-38
-0.30229411 -1.3256369 3.2675402 1.0510298e-38
-0.27938625 -1.2813936 3.1584859 1.0510299e-38
-0.27841488 -1.3383445 3.2988632 1.0326268e-38
-0.25794551 -1.3025872 3.2107255 1.0326629e-38
-0.24377748 -1.2965388 3.1958172 1.0417387e-38
-0.23119755 -1.2987317 3.2012224 1.0049682e-38
-0.21783687 -1.2965388 3.1958172 9.9571266e-39
-0.20486656 -1.2965388 3.1958172 9.586905e-39
-0.19189626 -1.2965388 3.1958172 5.5288623e-39
-0.17900151 -1.2970864 3.1971667 3.0384985e-39
-0.16567591 -1.2943534 3.1904302 3.0384957e-39
-0.15272745 -1.2943534 3.1904302 3.1306913e-39
-0.14037055 -1.2998309 3.2039318 3.0384929e-39
-0.12582314 -1.2840722 3.1650882 3.3161546e-39
-0.11359491 -1.2910889 3.1823838 3.5920212e-39
-0.1011468 -1.2970864 3.1971667 3.6838595e-39
-0.087249883 -1.2835355 3.1637654 3.8678878e-39
-0.075900391 -1.30925 3.2271488 3.8678864e-39
-0.062245738 -1.2976344 3.1985173 4.1441146e-39
-0.052291036 -1.3773545 3.3950183 4.1441146e-39
-0.036085021 -1.2905464 3.1810465 4.2359501e-39
-0.023815067 -1.3262092 3.2689512 4.2359501e-39
-0.010847709 -1.363899 3.3618519 4.3281429e-39
0.0027168309 -1.3250649 3.2661307 4.3281429e-39
0.016069561 -1.3331165 3.2859769 4.3277842e-39
0.029278707 -1.3273555 3.2717764 4.4199798e-39
0.1108667 -1.3507038 3.3293276 4.2366676e-39
0.13795169 -1.3512981 3.3307922 4.2359487e-39
0.48770541 -1.3848064 3.4133863 3.7756908e-39
0.50635284 -1.398043 3.4460132 3.7753321e-39
0.56705552 -1.5235617 3.7554021 3.7749733e-39
0.58549154 -1.5319204 3.7760053 3.591301e-39
0.55385619 -1.4121841 3.4808693 3.4991067e-39
0.58052814 -1.4433743 3.5577495 3.4072726e-39
0.57891655 -1.4044355 3.4617698 3.3147169e-39
0.60797805 -1.4399909 3.5494096 3.22288e-39
0.63579684 -1.4710251 3.6259055 3.131406e-39
0.6437301 -1.4556874 3.5881 2.8548205e-39
0.65518731 -1.4488209 3.5711749 2.7626277e-39
0.66747707 -1.4440529 3.559422 2.5785952e-39
0.68709165 -1.4549979 3.5864003 2.5785952e-39
0.6999892 -1.4515598 3.5779257 2.11798e-39
