# .PCD v0.7 - Point Cloud Data file format
VERSION 0.7
FIELDS x y z rgb
SIZE 4 4 4 4
TYPE F F F F
COUNT 1 1 1 1
WIDTH 1022
HEIGHT 1
VIEWPOINT 0 0 0 1 0 0 0
POINTS 1022
DATA ascii
-0.17079541 0.039479312 1.9308572 1.4805909e-39
-0.16242048 0.039348848 1.9244765 1.572432e-39
-0.1539447 0.039179545 1.9161961 1.5720733e-39
-0.14539498 0.0389724 1.9060651 1.5720691e-39
-0.13832082 0.039159719 1.9152266 1.755373e-39
-0.12962963 0.038884293 1.901756 7.106318e-39
-0.12197258 0.03890384 1.902712 3.1390024e-39
-0.11425037 0.03890384 1.902712 2.5796784e-39
-0.10693128 0.039051052 1.9099119 2.4867639e-39
-0.098681957 0.038855013 1.900324 4.1448377e-39
-0.09101513 0.038874529 1.9012785 1.9453276e-38
-0.083298743 0.038874529 1.9012785 2.1756332e-38
-0.060119387 0.038855013 1.900324 3.9590073e-39
-0.044795554 0.038942989 1.9046266 3.0384901e-39
-0.037046935 0.038923405 1.9036688 7.6547624e-39
-0.029342981 0.038952786 1.9051058 1.3542354e-38
-0.013896624 0.03900186 1.9075059 1.4652316e-38
-0.0061348672 0.038874529 1.9012785 5.0711828e-39
0.0015815204 0.038874529 1.9012785 1.4798679e-39
0.0093119396 0.038933191 1.9041476 1.4791476e-39
0.017078631 0.039021522 1.9084675 1.8472169e-39
0.024874358 0.039100371 1.9123241 1.571346e-39
0.032586187 0.039041206 1.9094303 1.7560974e-39
0.040325489 0.03903136 1.9089488 1.75538e-39
0.048073009 0.03903136 1.9089488 1.5717062e-39
0.055806454 0.039021522 1.9084675 1.5717034e-39
0.063712627 0.039120134 1.9132906 1.571346e-39
0.07187739 0.039338849 1.9239875 1.5709887e-39
0.080857188 0.039917063 1.9522668 1.4795091e-39
0.089449421 0.040217817 1.966976 1.4795105e-39
0.097660802 0.040312078 1.9715861 1.4791532e-39
0.19587499 0.040768601 1.9939138 1.2951193e-39
0.20157835 0.040291093 1.9705598 1.3873149e-39
0.2084906 0.04008244 1.9603549 1.4795105e-39
0.21605514 0.04000992 1.9568082 1.4795119e-39
0.22417071 0.040040966 1.9583266 1.5713446e-39
0.23193865 0.04000992 1.9568082 1.5706258e-39
0.23988041 0.04000992 1.9568082 1.4784259e-39
0.24782217 0.04000992 1.9568082 1.2022006e-39
0.25563177 0.039989248 1.9557972 1.4787917e-39
0.26343334 0.039968599 1.9547871 1.3865932e-39
0.26948819 0.039691892 1.941254 1.4784273e-39
0.27588129 0.039479312 1.9308572 1.386589e-39
0.47406697 0.039021522 1.9084675 1.2943906e-39
0.48696822 0.039439078 1.9288894 1.3865848e-39
0.49950537 0.039814398 1.9472456 1.3858646e-39
0.50766951 0.039834887 1.9482478 1.294385e-39
0.51451725 0.03975305 1.9442452 1.2943822e-39
0.52496952 0.039947968 1.9537783 1.385859e-39
0.53331184 0.039978918 1.955292 1.2936647e-39
0.54250848 0.040072061 1.9598475 1.3858646e-39
0.54975098 0.040020261 1.957314 1.2936661e-39
0.5572626 0.039989248 1.9557972 1.201832e-39
0.56681091 0.040103205 1.9613707 1.5702572e-39
0.57447356 0.04008244 1.9603549 1.0167177e-39
0.58379018 0.040176064 1.964934 9.2451507e-40
0.5937683 0.040312078 1.9715861 1.1085476e-39
0.6023975 0.040354114 1.973642 1.201102e-39
0.61280382 0.040512528 1.9813899 1.2940193e-39
0.62084538 0.040512528 1.9813899 1.2021824e-39
0.63436556 0.040865462 1.9986513 1.2018222e-39
0.86870956 0.039712258 1.94225 1.0167149e-39
0.87771809 0.039763261 1.9447446 1.0170736e-39
0.89248848 0.040072061 1.9598475 1.0167107e-39
0.91730213 0.040822357 1.9965429 1.0167121e-39
0.88458192 0.039021522 1.9084675 1.1089091e-39
0.89935547 0.039328855 1.9234986 1.0167107e-39
0.91978097 0.039875936 1.9502553 1.1085476e-39
0.96564496 0.038855013 1.900324 1.0163506e-39
0.97752869 0.039021522 1.9084675 1.0163506e-39
0.98106998 0.038855013 1.900324 1.0163506e-39
0.99931753 0.039268993 1.920571 1.0163492e-39
1.088393 0.040554985 1.9834663 9.23792e-40
1.088393 0.040554985 1.9834663 6.7280908e-39
1.088393 0.040554985 1.9834663 1.2624626e-38
-0.86725825 0.047692809 1.9462444 1.2954794e-39
-0.85408992 0.047400367 1.9343103 1.2951179e-39
-0.85033804 0.048075933 1.9618789 1.2954822e-39
-0.82799995 0.047255486 1.928398 1.2951221e-39
-0.81746668 0.047099527 1.9220337 1.1114469e-39
-0.81048912 0.047147404 1.9239875 1.110721e-39
-0.80186546 0.047099527 1.9220337 2.3996732e-39
-0.79406482 0.047099527 1.9220337 6.2808958e-39
-0.78626418 0.047099527 1.9220337 4.7041169e-40
-0.77727962 0.04702789 1.9191104 1.1107238e-39
-0.77007645 0.047063682 1.920571 1.2947549e-39
-0.76228178 0.047063682 1.920571 1.2029194e-39
-0.73442632 0.04677888 1.9089488 1.2951207e-39
-0.73073226 0.047039814 1.919597 1.2036439e-39
-0.71947551 0.046814289 1.9103938 1.2032824e-39
-0.71226132 0.046849754 1.9118412 1.3869534e-39
-0.71096534 0.04727957 1.9293809 1.2947563e-39
-0.70367289 0.047315743 1.9308572 3.4080461e-39
-0.69583648 0.047315743 1.9308572 3.4069517e-39
-0.68537807 0.047135424 1.9234986 1.3862219e-39
-0.67602569 0.04702789 1.9191104 1.2954752e-39
-0.6677292 0.046992157 1.9176521 1.1107238e-39
-0.66044819 0.04702789 1.9191104 3.1343193e-39
-0.65282494 0.047039814 1.919597 1.0046472e-38
-0.64438063 0.046992157 1.9176521 2.3071048e-39
-0.63659781 0.046992157 1.9176521 1.3876736e-39
-0.62977207 0.047063682 1.920571 1.4795133e-39
-0.61993295 0.046908986 1.9142581 1.4798749e-39
-0.61108232 0.046826106 1.910876 1.2958409e-39
-0.60044754 0.046602622 1.901756 1.2954822e-39
-0.59302711 0.046626046 1.902712 1.3876806e-39
-0.58960211 0.046968363 1.9166812 1.388038e-39
-0.20045409 0.046920847 1.9147422 1.5724292e-39
-0.19381043 0.047195379 1.9259453 1.572432e-39
-0.18589935 0.04717138 1.9249659 1.5724278e-39
-0.17867741 0.047327813 1.9313496 1.4802378e-39
-0.16988555 0.047063682 1.920571 1.5727922e-39
-0.16168071 0.046944592 1.9157113 1.5727922e-39
-0.15324654 0.04674352 1.9075059 1.5724334e-39
-0.14506628 0.046602622 1.901756 1.5720691e-39
-0.13811119 0.046861589 1.9123241 2.9517441e-39
-0.1218195 0.046567529 1.900324 2.1215995e-39
-0.11410698 0.046567529 1.900324 2.5800413e-39
-0.10668904 0.046696458 1.9055854 2.4871226e-39
-0.044694357 0.046567529 1.900324 2.0272277e-39
-0.013868669 0.046649493 1.9036688 5.0632333e-39
0.0092979083 0.046590917 1.9012785 1.5709845e-39
0.017052839 0.046696458 1.9055854 1.6635403e-39
0.024855522 0.046826106 1.910876 1.5713446e-39
0.032545149 0.046731748 1.9070253 1.6635459e-39
0.040224068 0.046661224 1.9041476 1.6639018e-39
0.047879849 0.046590917 1.9012785 1.7560946e-39
0.055919223 0.046861589 1.9123241 1.4795063e-39
0.063793235 0.046944592 1.9157113 1.5717048e-39
0.072189257 0.047351975 1.9323356 1.4791532e-39
0.080919787 0.047877427 1.9537783 1.387675e-39
0.090341337 0.048681457 1.9865891 1.4795105e-39
0.19577187 0.048835229 1.9928641 1.4798763e-39
0.20231557 0.048465263 1.9777666 1.3880352e-39
0.20870675 0.048088398 1.9623874 1.3873121e-39
0.21611099 0.047964074 1.957314 1.387675e-39
0.22422871 0.048001301 1.9588333 1.3876736e-39
0.23211864 0.047988884 1.9583266 1.3873135e-39
0.23988041 0.047951676 1.9568082 1.4787875e-39
0.24782217 0.047951676 1.9568082 1.202195e-39
0.25549978 0.047902152 1.9547871 1.2943948e-39
0.26370567 0.047951676 1.9568082 1.4787903e-39
0.27018094 0.047692809 1.9462444 1.4787903e-39
0.27743796 0.047582723 1.941752 1.3869548e-39
0.28415254 0.047388259 1.9338163 1.2947563e-39
0.47538513 0.046897128 1.9137743 1.2021936e-39
0.48634866 0.047207389 1.9264354 1.2947507e-39
0.49796844 0.047570519 1.941254 1.3862247e-39
0.50753886 0.047729619 1.9477465 1.3858618e-39
0.51451725 0.047643818 1.9442452 1.3862191e-39
0.52429301 0.047815729 1.9512606 1.2940207e-39
0.53344965 0.047926899 1.9557972 1.2018278e-39
0.54236805 0.048013724 1.9593402 1.2943892e-39
0.54904127 0.047902152 1.9547871 1.294385e-39
0.55697483 0.047902152 1.9547871 1.2014677e-39
0.56637073 0.048026152 1.9598475 1.0170736e-39
0.57358241 0.047964074 1.957314 9.2415353e-40
0.58318472 0.048100863 1.9628962 1.1089063e-39
0.59330475 0.048276093 1.970047 1.1092679e-39
0.60051894 0.048213366 1.9674872 1.3854946e-39
0.61200297 0.048490599 1.9788005 1.2014635e-39
0.61987197 0.048477929 1.9782834 1.2936577e-39
0.63470066 0.049002916 1.999707 1.3858548e-39
0.87211752 0.047351975 1.9323356 1.1089105e-39
0.88447487 0.047594927 1.94225 1.0167149e-39
0.99603277 0.046908986 1.9142581 1.0159904e-39
1.048056 0.04897704 1.9986513 1.0163506e-39
1.09355 0.048835229 1.9928641 9.2415073e-40
-0.87061536 0.055806886 1.9537783 1.2958381e-39
-0.85583919 0.055363975 1.9382721 1.2036411e-39
-0.85033804 0.056038272 1.9618789 1.2036439e-39
-0.82821095 0.055095971 1.9288894 1.2951193e-39
-0.81746668 0.054900151 1.9220337 1.2036425e-39
-0.81028318 0.054941993 1.9234986 1.2032782e-39
-0.80166191 0.054886214 1.9215459 2.0326941e-39
-0.79366183 0.054872289 1.9210583 6.0983066e-39
-0.78586519 0.054872289 1.9210583 5.6369473e-40
-0.77688575 0.054788876 1.918138 1.1110896e-39
-0.76929581 0.05480276 1.9186242 1.2029208e-39
-0.76150906 0.05480276 1.9186242 1.2032796e-39
-0.73276347 0.05440294 1.9046266 1.2951221e-39
-0.73314881 0.055011876 1.9259453 1.2958381e-39
-0.71136314 0.05454015 1.9094303 1.3869548e-39
-0.71187246 0.055180322 1.9318424 1.2947549e-39
-0.7051115 0.055264935 1.9348047 3.9594193e-39
-0.69725907 0.055264935 1.9348047 4.1423574e-39
-0.68572652 0.054969925 1.9244765 1.3865834e-39
-0.67619711 0.054830551 1.919597 1.2954752e-39
-0.6677292 0.054774996 1.9176521 1.2032782e-39
-0.66011351 0.054788876 1.918138 2.3038524e-39
-0.65232873 0.054788876 1.918138 1.0047941e-38
-0.64324015 0.054678049 1.9142581 2.4047164e-39
-0.63659781 0.054774996 1.9176521 1.2032852e-39
-0.6291337 0.05480276 1.9186242 1.4795147e-39
-0.61961961 0.054650415 1.9132906 1.3876792e-39
-0.61077404 0.054553907 1.9099119 1.388038e-39
-0.5878163 0.054581445 1.910876 1.3880422e-39
-0.5827083 0.054830551 1.919597 1.4798749e-39
-0.1996462 0.054471459 1.9070253 1.5724306e-39
-0.19555153 0.05550608 1.9432471 1.4802364e-39
-0.18689728 0.055279061 1.9352993 1.5724292e-39
-0.17863184 0.055152178 1.9308572 1.5720719e-39
-0.16992866 0.054872289 1.9210583 1.6639116e-39
-0.16176257 0.054747261 1.9166812 1.5720705e-39
-0.15320794 0.054471459 1.9070253 1.6642661e-39
-0.14506628 0.054320946 1.901756 1.4802364e-39
-0.13804145 0.054595225 1.9113585 4.1553432e-39
-0.10655495 0.054361913 1.9031903 2.3952899e-39
-0.013851255 0.054307304 1.9012785 2.5800777e-39
0.0092932405 0.054280043 1.900324 1.5709845e-39
0.017057132 0.05444403 1.9060651 1.5713446e-39
0.024880642 0.054636605 1.9128072 1.663899e-39
0.032569759 0.05451265 1.9084675 1.6639046e-39
0.040224068 0.054389257 1.9041476 1.6635445e-39
0.04813369 0.054595225 1.9113585 1.571346e-39
0.055834603 0.05454015 1.9094303 1.5713446e-39
0.064134024 0.055011876 1.9259453 1.4798679e-39
0.072355464 0.055321485 1.9367845 1.5717076e-39
0.08140295 0.056140106 1.9654441 1.5713474e-39
0.19613327 0.057028398 1.9965429 1.4798707e-39
0.2013687 0.056227688 1.9685104 1.4798679e-39
0.2085446 0.056009244 1.9608626 1.479149e-39
0.21566494 0.055792488 1.9532743 1.4795119e-39
0.22376555 0.055835705 1.9547871 1.3880352e-39
0.2316393 0.055821292 1.9542826 1.3873135e-39
0.23950897 0.055806886 1.9537783 1.4787889e-39
0.24743845 0.055806886 1.9537783 1.2943906e-39
0.25490743 0.055706255 1.9502553 1.2018348e-39
0.26329735 0.055806886 1.9537783 1.3862317e-39
0.2710869 0.055778097 1.9527704 1.2944004e-39
0.27722466 0.05542073 1.9402591 1.4791518e-39
0.45857581 0.05451265 1.9084675 1.3862261e-39
0.46880308 0.05480276 1.9186242 1.3862275e-39
0.47877383 0.055053893 1.9274162 1.294392e-39
0.4872165 0.055124059 1.9298728 1.2943934e-39
0.49873573 0.05553459 1.9442452 1.3862247e-39
0.50845456 0.05573497 1.9512606 1.3862233e-39
0.51451725 0.05553459 1.9442452 1.2940249e-39
0.52307969 0.055605989 1.9467449 1.2940249e-39
0.53098059 0.055605989 1.9467449 1.2018348e-39
0.54041004 0.055763714 1.9522668 1.6624529e-39
0.54748631 0.05567757 1.9492509 1.2936633e-39
0.55496877 0.055634599 1.9477465 1.1085476e-39
0.56345356 0.055691909 1.9497529 1.0163492e-39
0.57121956 0.05567757 1.9492509 1.017068e-39
0.58062559 0.055821292 1.9542826 1.1092665e-39
0.58901322 0.055864554 1.9557972 1.2014635e-39
0.59418792 0.055605989 1.9467449 1.3858562e-39
0.60426414 0.055806886 1.9537783 1.2940179e-39
0.60998976 0.055605989 1.9467449 1.4780532e-39
0.62577522 0.056315545 1.9715861 1.2940221e-39
0.8676883 0.054914091 1.9225218 1.0167149e-39
0.87928671 0.055152178 1.9308572 1.0167163e-39
0.91609424 0.056953304 1.9939138 9.248766e-40
0.97752869 0.05451265 1.9084675 9.2415353e-40
0.98502594 0.054498915 1.9079866 9.237948e-40
1.0036458 0.055095971 1.9288894 1.0159918e-39
1.0955687 0.057028398 1.9965429 9.2414933e-40
-0.8744517 0.064017199 1.9623874 1.2958395e-39
-0.85891777 0.063457951 1.9452443 1.2954794e-39
-0.85011774 0.063984029 1.9613707 1.2032824e-39
-0.82799995 0.062908389 1.928398 1.2029222e-39
-0.81725919 0.062684856 1.9215459 1.2951193e-39
-0.80987167 0.062716693 1.9225218 1.2947549e-39
-0.80125517 0.062653057 1.920571 1.6657053e-39
-0.79325926 0.062637165 1.9200839 5.8242252e-39
-0.78546655 0.062637165 1.9200839 7.4807758e-40
-0.7764923 0.062541999 1.9171666 1.1114469e-39
-0.76871139 0.062541999 1.9171666 1.2032824e-39
-0.76093054 0.062541999 1.9171666 1.203281e-39
-0.73202682 0.062070455 1.902712 1.2954808e-39
-0.73091757 0.062637165 1.9200839 1.2036439e-39
-0.70921665 0.06210167 1.9036688 1.3873135e-39
-0.70807821 0.062684856 1.9215459 1.3873093e-39
-0.70331413 0.062956497 1.9298728 4.3267626e-39
-0.69725907 0.063117392 1.9348047 4.3260312e-39
-0.68659914 0.062860355 1.9269257 1.3865862e-39
-0.67722738 0.062716693 1.9225218 1.295478e-39
-0.66806763 0.062589549 1.9186242 1.2951165e-39
-0.66044819 0.062605411 1.9191104 1.1096462e-39
-0.65265942 0.062605411 1.9191104 5.6322824e-39
-0.64389139 0.062510334 1.9161961 2.6863382e-39
-0.63724345 0.062621281 1.919597 1.2036453e-39
-0.62977207 0.062653057 1.920571 1.3876792e-39
-0.62087488 0.062541999 1.9171666 1.4795161e-39
-0.6121639 0.062447116 1.9142581 1.4798735e-39
-0.60302258 0.062305335 1.9099119 1.3880352e-39
-0.59512103 0.062289622 1.9094303 1.2958423e-39
-0.58722347 0.062273916 1.9089488 1.2958451e-39
-0.58359611 0.062716693 1.9225218 1.3880394e-39
-0.49967238 0.064994298 1.9923397 1.3884009e-39
-0.20045409 0.062462911 1.9147422 1.5720733e-39
-0.19425517 0.062972553 1.9303648 1.5724334e-39
-0.18680178 0.063101262 1.9343103 1.5724334e-39
-0.17826813 0.062860355 1.9269257 1.5724334e-39
-0.16958441 0.062541999 1.9171666 1.572432e-39
-0.16155806 0.062447116 1.9142581 1.5720733e-39
-0.15320794 0.062211171 1.9070253 1.663906e-39
-0.14502984 0.062023692 1.9012785 2.0312424e-39
-0.13793698 0.062305335 1.9099119 7.3811056e-39
-0.10642118 0.06200812 1.9008011 2.3952885e-39
0.024830455 0.062273916 1.9089488 1.571702e-39
0.056032449 0.062510334 1.9161961 1.5713474e-39
0.064117715 0.062812395 1.9254555 1.4798693e-39
0.072060511 0.062924422 1.9288894 1.5713488e-39
0.081213199 0.063967451 1.9608626 1.4791532e-39
0.20789844 0.063769259 1.9547871 1.3873135e-39
0.21488877 0.063490577 1.9462444 1.5717076e-39
0.22267318 0.063457951 1.9452443 1.2958381e-39
0.230924 0.063555934 1.9482478 1.2954766e-39
0.23895399 0.063588656 1.9492509 1.479149e-39
0.24718328 0.06367062 1.9517635 1.3865918e-39
0.25314674 0.063181974 1.9367845 1.2940347e-39
0.26221466 0.06347426 1.9457443 1.2940347e-39
0.27094713 0.06367062 1.9517635 1.2029166e-39
0.27836609 0.063555934 1.9482478 1.2947577e-39
0.37679398 0.062828377 1.9259453 1.3862289e-39
0.39053935 0.062526166 1.9166812 1.3869464e-39
0.39751315 0.062399782 1.9128072 1.4784245e-39
0.44759792 0.06289237 1.927907 1.2940291e-39
0.45565444 0.062924422 1.9288894 1.2940291e-39
0.46383741 0.062972553 1.9303648 1.3858632e-39
0.4725152 0.063085146 1.9338163 1.385866e-39
0.48134723 0.063214317 1.937776 1.2940277e-39
0.4897131 0.063279107 1.9397619 1.2943864e-39
0.49899203 0.063457951 1.9452443 1.3862261e-39
0.50897926 0.063719906 1.9532743 1.3865848e-39
0.51464945 0.063441649 1.9447446 1.201832e-39
0.52254224 0.063441649 1.9447446 1.2014789e-39
0.53139055 0.063555934 1.9482478 1.5698971e-39
0.53999233 0.063637808 1.9507577 1.1092679e-39
0.54594016 0.063409075 1.943746 9.248738e-40
0.55454075 0.063490577 1.9462444 9.24871e-40
0.56374395 0.063637808 1.9507577 9.2523253e-40
0.57136667 0.063605033 1.9497529 1.2936591e-39
0.58032596 0.063719906 1.9532743 1.2018222e-39
0.58840519 0.063736349 1.9537783 1.3854946e-39
0.59236014 0.063311547 1.9407564 1.3858562e-39
0.60239863 0.06353958 1.9477465 1.3858548e-39
0.60780174 0.063279107 1.9397619 1.2940207e-39
0.87504649 0.062684856 1.9215459 1.1085518e-39
0.88893682 0.063117392 1.9348047 1.0167121e-39
0.90348929 0.06249452 1.9157113 1.108549e-39
0.93105531 0.062258217 1.9084675 1.1085448e-39
0.97752869 0.062258217 1.9084675 1.0159904e-39
0.98230284 0.062070455 1.902712 1.0163478e-39
0.99653667 0.06247871 1.9152266 9.2415213e-40
1.0338635 0.064317279 1.9715861 9.2415073e-40
1.0411905 0.063785732 1.955292 9.23792e-40
1.0901066 0.0648067 1.9865891 1.0156261e-39
-0.87309384 0.07186982 1.9593402 1.2036439e-39
-0.85847658 0.07131613 1.9442452 1.2958395e-39
-0.84945756 0.071888432 1.9598475 1.2036425e-39
-0.82778913 0.070716836 1.927907 1.2958353e-39
-0.81684458 0.070447743 1.920571 1.2951179e-39
-0.80946058 0.070483506 1.9215459 1.3865904e-39
-0.80105197 0.070429876 1.9200839 1.3891198e-39
-0.79285711 0.070394173 1.9191104 5.1770565e-39
-0.78506833 0.070394173 1.9191104 6.5479594e-40
-0.77609921 0.070287272 1.9161961 1.2958353e-39
-0.76832229 0.070287272 1.9161961 1.2032838e-39
-0.76054537 0.070287272 1.9161961 1.295478e-39
-0.73110813 0.069705069 1.900324 1.3873149e-39
-0.72814757 0.070162959 1.9128072 1.387675e-39
-0.70868212 0.069775127 1.9022338 1.4795091e-39
-0.7039687 0.070074439 1.9103938 1.3862317e-39
-0.70063519 0.070519298 1.9225218 4.4175205e-39
-0.69708091 0.070951715 1.9343103 4.5097078e-39
-0.68712384 0.070734844 1.928398 1.3865876e-39
-0.67671186 0.070465617 1.9210583 1.387675e-39
-0.6675601 0.070322864 1.9171666 1.479149e-39
-0.65977919 0.070322864 1.9171666 9.2669549e-40
-0.65199834 0.070322864 1.9171666 2.9574965e-39
-0.6435656 0.070251711 1.9152266 6.00102e-39
-0.63659781 0.070340678 1.9176521 1.7557303e-39
-0.6291337 0.070376329 1.9186242 1.2958409e-39
-0.62087488 0.070322864 1.9171666 1.2954808e-39
-0.61247361 0.070251711 1.9152266 1.3876764e-39
-0.60302258 0.070056759 1.9099119 1.388038e-39
-0.59302711 0.069792658 1.902712 1.3876806e-39
-0.58501089 0.069757596 1.901756 1.388038e-39
-0.58182317 0.070305064 1.9166812 1.388038e-39
-0.51766384 0.072206192 1.9685104 1.4802336e-39
-0.50716907 0.071851231 1.9588333 1.3876764e-39
-0.49793077 0.071665809 1.9537783 1.4798791e-39
-0.49809945 0.072850212 1.9860679 1.4802392e-39
-0.2002515 0.070162959 1.9128072 1.5724334e-39
-0.19405726 0.070734844 1.928398 1.4802378e-39
-0.18661106 0.070879273 1.9323356 1.6642717e-39
-0.17817743 0.07064487 1.9259453 1.5724306e-39
-0.16932714 0.070216179 1.9142581 1.5724306e-39
-0.1611506 0.070039093 1.9094303 1.5724306e-39
-0.15309225 0.069898061 1.9055854 1.5720705e-39
-0.13776322 0.069968507 1.9075059 1.0140819e-38
0.048145846 0.070127524 1.9118412 1.4795091e-39
0.056103449 0.070376329 1.9186242 1.5713474e-39
0.063955061 0.070447743 1.920571 1.5717076e-39
0.071913935 0.070608951 1.9249659 1.571346e-39
0.081657335 0.072319008 1.9715861 1.5713488e-39
0.21395376 0.071078829 1.937776 1.3876722e-39
0.2225588 0.07131613 1.9442452 1.4798721e-39
0.23044957 0.07131613 1.9442452 1.4791518e-39
0.23852411 0.071371116 1.9457443 1.5713446e-39
0.24686508 0.071499743 1.9492509 1.4787889e-39
0.25153804 0.070591003 1.9244765 1.4787861e-39
0.26248449 0.071444556 1.9477465 1.2021978e-39
0.2722103 0.07192567 1.9608626 1.2943934e-39
0.28287932 0.072621599 1.9798355 1.4787875e-39
0.37422362 0.070162959 1.9128072 1.3865848e-39
0.38886574 0.070003778 1.9084675 1.3862289e-39
0.43391716 0.069775127 1.9022338 1.2943878e-39
0.44431674 0.070198432 1.9137743 1.2025495e-39
0.449132 0.069740079 1.9012785 1.3862219e-39
0.45857581 0.070003778 1.9084675 1.386582e-39
0.46904081 0.070412017 1.919597 1.2940319e-39
0.47913978 0.070752867 1.9288894 1.2021922e-39
0.48858649 0.070987985 1.9352993 1.201832e-39
0.49771321 0.071169913 1.9402591 1.4784189e-39
0.50832355 0.071555011 1.9507577 1.3858632e-39
0.51544386 0.071444556 1.9477465 1.4780616e-39
0.52375305 0.071499743 1.9492509 1.7542912e-39
0.53152728 0.07148134 1.9487492 1.0167149e-39
0.53888154 0.071407817 1.9467449 9.2451367e-40
0.54636097 0.071352772 1.9452443 1.0163506e-39
0.55496877 0.071444556 1.9477465 1.1092679e-39
0.56258428 0.071407817 1.9467449 1.109628e-39
0.56946015 0.071279518 1.9432471 1.2018264e-39
0.57675475 0.071206413 1.941254 1.2936633e-39
0.58523363 0.071279518 1.9432471 1.3854974e-39
0.58694357 0.07053721 1.9230101 1.4776917e-39
0.59580749 0.070662849 1.9264354 1.2940179e-39
0.87106699 0.070162959 1.9128072 1.1089091e-39
0.88083303 0.070322864 1.9171666 1.1085476e-39
0.90007305 0.070003778 1.9084675 1.1085476e-39
0.92824739 0.069792658 1.902712 1.0163506e-39
0.97458059 0.069792658 1.902712 9.2451647e-40
0.98205602 0.069775127 1.9022338 9.2415353e-40
0.99301982 0.070003778 1.9084675 8.319565e-40
1.0171756 0.071151681 1.9397619 8.3231524e-40
1.0085109 0.070003778 1.9084675 9.2415213e-40
1.0271311 0.070752867 1.9288894 9.237948e-40
1.0901066 0.072869323 1.9865891 1.1078231e-39
-0.87558645 0.080049738 1.964934 1.387675e-39
-0.85913849 0.079267964 1.9457443 1.295478e-39
-0.84835953 0.07973931 1.957314 1.2036439e-39
-0.82694679 0.078461371 1.9259453 1.2954766e-39
-0.81601655 0.078163117 1.9186242 1.2951165e-39
-0.80884469 0.078222588 1.9200839 1.2947577e-39
-0.80024016 0.078143314 1.918138 1.2972899e-39
-0.79225463 0.078123517 1.9176521 4.7164427e-39
-0.78447181 0.078123517 1.9176521 5.6260031e-40
-0.77551037 0.078004971 1.9147422 1.3880394e-39
-0.76773936 0.078004971 1.9147422 1.1110867e-39
-0.75996828 0.078004971 1.9147422 1.2951165e-39
-0.73184288 0.077495389 1.9022338 1.2951165e-39
-0.70325893 0.077749349 1.9084675 1.386596e-39
-0.70295578 0.078581311 1.9288894 4.601916e-39
-0.69832987 0.078943349 1.937776 4.4182324e-39
-0.68852681 0.07872171 1.9323356 1.4787833e-39
-0.67705548 0.078302018 1.9220337 1.4795119e-39
-0.66806763 0.078163117 1.9186242 1.2951193e-39
-0.65994632 0.078123517 1.9176521 1.2029194e-39
-0.65216351 0.078123517 1.9176521 2.7655368e-39
-0.64389139 0.078064203 1.9161961 9.9549981e-39
-0.63659781 0.078123517 1.9176521 2.3081936e-39
-0.6291337 0.078163117 1.9186242 1.2036425e-39
-0.62134689 0.078163117 1.9186242 1.3876722e-39
-0.61247361 0.078024708 1.9152266 1.3880352e-39
-0.60317475 0.077827819 1.9103938 1.2958409e-39
-0.59392267 0.077631928 1.9055854 1.3876792e-39
-0.58737159 0.077788562 1.9094303 1.480235e-39
-0.58108765 0.077985249 1.9142581 1.4798749e-39
-0.51658928 0.080028974 1.9644241 1.5720719e-39
-0.50586021 0.079595268 1.9537783 1.4798749e-39
-0.49664909 0.079390384 1.9487492 1.4802378e-39
-0.49757731 0.080825903 1.983986 1.3880436e-39
-0.20080958 0.078143314 1.918138 1.480235e-39
-0.19445349 0.07872171 1.9323356 1.5720733e-39
-0.18675406 0.078782029 1.9338163 1.663906e-39
-0.17813212 0.078441419 1.9254555 1.5720677e-39
-0.16936997 0.078004971 1.9147422 1.6646235e-39
-0.16094765 0.077690594 1.9070253 1.6642619e-39
-0.15297674 0.077573352 1.9041476 1.4802336e-39
-0.13765916 0.077651471 1.9060651 7.195627e-39
0.071513914 0.077985249 1.9142581 1.5717076e-39
0.36729562 0.078103736 1.9171666 1.3869492e-39
0.37593326 0.078282148 1.9215459 1.2947493e-39
0.38189033 0.077906452 1.9123241 1.3865862e-39
0.39083618 0.078143314 1.918138 1.3862303e-39
0.43413532 0.077534355 1.9031903 1.3862261e-39
0.44308469 0.077749349 1.9084675 1.3862247e-39
0.4578833 0.077631928 1.9055854 1.3862247e-39
0.4682098 0.078064203 1.9161961 1.3862261e-39
0.47767934 0.078341797 1.9230101 1.3862275e-39
0.48659632 0.078521296 1.9274162 1.3862289e-39
0.49707624 0.078943349 1.937776 1.2943892e-39
0.50780016 0.079390384 1.9487492 1.4780574e-39
0.5153113 0.079329133 1.9472456 1.3854946e-39
0.52348351 0.079369955 1.9482478 1.0170722e-39
0.53043503 0.079227246 1.9447446 1.016352e-39
0.53805143 0.079186559 1.943746 1.0170708e-39
0.54510045 0.079064764 1.9407564 1.2007474e-39
0.55368674 0.079166234 1.9432471 1.2014677e-39
0.56142938 0.079145923 1.9427484 1.2936605e-39
0.56814772 0.078983776 1.9387684 1.2021838e-39
0.57660687 0.079064764 1.9407564 1.2940221e-39
0.58478332 0.079105325 1.941752 1.3862163e-39
0.5861991 0.078242429 1.920571 1.2940179e-39
0.59444618 0.078302018 1.9220337 1.2940193e-39
0.8690908 0.077749349 1.9084675 1.0167107e-39
1.0086474 0.078361697 1.9234986 9.2415353e-40
1.0227015 0.078242429 1.920571 1.0159904e-39
1.0906789 0.080974445 1.9876322 9.237892e-40
-0.87855065 0.088322476 1.9715861 1.2036383e-39
-0.86157417 0.087411933 1.9512606 1.2036411e-39
-0.84726429 0.087569922 1.9547871 1.203288e-39
-0.82631618 0.086212076 1.9244765 1.2951235e-39
-0.8151902 0.08586286 1.9166812 1.2951207e-39
-0.808025 0.085928127 1.918138 1.2947577e-39
-0.79943001 0.085841134 1.9161961 8.3811101e-40
-0.79125255 0.085797697 1.9152266 4.4416495e-39
-0.78347957 0.085797697 1.9152266 6.5479735e-40
-0.77453095 0.08566767 1.9123241 1.4798777e-39
-0.76676971 0.08566767 1.9123241 1.2954794e-39
-0.75881684 0.085646041 1.9118412 1.2947577e-39
-0.70219684 0.085365795 1.9055854 1.3869548e-39
-0.70475131 0.086630479 1.9338163 4.1427385e-39
-0.69958329 0.086963668 1.941254 3.9590591e-39
-0.69028866 0.086785644 1.9372802 1.479149e-39
-0.67912436 0.086365752 1.927907 1.4798777e-39
-0.66993517 0.086190172 1.9239875 1.3873191e-39
-0.66095084 0.086037114 1.920571 1.3873121e-39
-0.65299046 0.086015299 1.9200839 1.9361587e-39
-0.6448707 0.085971691 1.9191104 8.2069189e-39
-0.63756675 0.086037114 1.920571 2.2214126e-39
-0.63009173 0.08608079 1.9215459 1.0196128e-39
-0.62245107 0.086102642 1.9220337 1.3873149e-39
-0.6132493 0.085906364 1.9176521 1.3876736e-39
-0.60393673 0.085689314 1.9128072 1.387675e-39
-0.59557164 0.085602805 1.910876 1.3876792e-39
-0.58737159 0.085538037 1.9094303 1.3883981e-39
-0.57932985 0.085494913 1.9084675 1.480235e-39
-0.57375377 0.085819408 1.9157113 1.5720719e-39
-0.54050726 0.088001639 1.9644241 1.4802378e-39
-0.52077836 0.087366901 1.9502553 1.3880408e-39
-0.51565272 0.087842092 1.9608626 1.5720719e-39
-0.50559926 0.087479576 1.9527704 1.572432e-39
-0.49728909 0.087411933 1.9512606 1.2962053e-39
-0.49967238 0.089252189 1.9923397 1.3884009e-39
-0.20050479 0.085797697 1.9152266 1.6642689e-39
-0.19455281 0.08660835 1.9333224 1.4805937e-39
-0.18694507 0.086719081 1.9357941 1.5720691e-39
-0.17790589 0.086146384 1.9230101 1.5720705e-39
-0.16949856 0.085841134 1.9161961 1.5717132e-39
-0.16106936 0.085494913 1.9084675 1.4802336e-39
-0.15301523 0.085322842 1.9046266 2.1237911e-39
-0.13762452 0.085365795 1.9055854 3.0500704e-39
0.024736896 0.085194252 1.901756 1.5709817e-39
0.047903907 0.085215658 1.9022338 1.3873149e-39
0.056018271 0.085819408 1.9157113 1.3873121e-39
0.063955061 0.086037114 1.920571 1.4791518e-39
0.072858714 0.087366901 1.9502553 1.4798721e-39
0.34395301 0.085884608 1.9171666 1.3865862e-39
0.35633585 0.08700829 1.94225 1.3862275e-39
0.37545681 0.085971691 1.9191104 1.3865904e-39
0.38179389 0.085646041 1.9118412 1.3862289e-39
0.39182889 0.086146384 1.9230101 1.4780658e-39
0.3973124 0.085646041 1.9118412 1.2947549e-39
0.41210243 0.085494913 1.9084675 1.294392e-39
0.41889766 0.085301384 1.9041476 1.2021922e-39
0.42834941 0.085646041 1.9118412 1.3862247e-39
0.43666002 0.085754313 1.9142581 1.3862247e-39
0.44544274 0.085949905 1.9186242 1.2940291e-39
0.45299992 0.085906364 1.9176521 1.2940277e-39
0.4620702 0.086146384 1.9230101 1.2018348e-39
0.47287756 0.086696908 1.9352993 1.2021978e-39
0.48122406 0.086785644 1.9372802 1.2025565e-39
0.48921174 0.086807862 1.937776 1.2943934e-39
0.49886385 0.087120041 1.9447446 1.5706174e-39
0.50897926 0.087502144 1.9532743 1.2014635e-39
0.5151788 0.087209642 1.9467449 1.0167093e-39
0.52254224 0.087120041 1.9447446 1.1085476e-39
0.53084409 0.087187223 1.9462444 1.1092693e-39
0.53777528 0.087030619 1.9427484 1.1096294e-39
0.54538006 0.086985976 1.941752 1.1096322e-39
0.5538289 0.087075308 1.943746 1.2933046e-39
0.56186187 0.087097667 1.9442452 1.201825e-39
0.56946015 0.087052956 1.9432471 1.2940221e-39
0.57823741 0.087187223 1.9462444 1.3855002e-39
0.58598566 0.087164819 1.9457443 1.385859e-39
0.58471578 0.085819408 1.9157113 1.3862149e-39
0.59565592 0.086277872 1.9259453 1.2940193e-39
0.99699551 0.085172854 1.9012785 9.2415353e-40
1.0131917 0.085237071 1.902712 1.0159904e-39
1.0723908 0.089534931 1.9986513 1.0159904e-39
1.0866848 0.088715225 1.9803534 9.237892e-40
-0.87992555 0.096474953 1.9746716 1.2040012e-39
-0.8600226 0.095159501 1.9477465 1.2958395e-39
-0.84573573 0.095331177 1.9512606 1.1118084e-39
-0.82568651 0.093950972 1.9230101 1.2954836e-39
-0.81477767 0.093594372 1.9157113 1.3873177e-39
-0.80720693 0.093618065 1.9161961 1.1107266e-39
-0.79882348 0.093547031 1.9147422 5.6152131e-40
-0.79045272 0.093476109 1.9132906 4.07286e-39
-0.78268754 0.093476109 1.9132906 9.3137583e-40
-0.77374917 0.093334585 1.9103938 1.3876764e-39
-0.7659958 0.093334585 1.9103938 1.3876764e-39
-0.75805116 0.093311042 1.9099119 1.2947605e-39
-0.70219684 0.093099661 1.9055854 1.2951151e-39
-0.69832993 0.093618065 1.9161961 3.5917227e-39
-0.69459641 0.094166234 1.9274162 3.3158561e-39
-0.68940663 0.094527207 1.9348047 1.4791504e-39
-0.67912436 0.09419021 1.927907 1.3876792e-39
-0.66891521 0.093855612 1.9210583 1.2958423e-39
-0.65994632 0.093689203 1.9176521 1.2954766e-39
-0.6518333 0.093641765 1.9166812 1.018531e-39
-0.64372844 0.093594372 1.9157113 3.8805528e-39
-0.63627547 0.093641765 1.9166812 3.698674e-39
-0.628815 0.093689203 1.9176521 1.388031e-39
-0.62118948 0.093712941 1.918138 1.4795105e-39
-0.61293876 0.093641765 1.9166812 1.4798707e-39
-0.60439485 0.093523383 1.9142581 1.4798721e-39
-0.59527117 0.093311042 1.9099119 1.4798735e-39
-0.57346356 0.093547031 1.9147422 1.4798763e-39
-0.56827956 0.093974836 1.9234986 1.388038e-39
-0.54410338 0.095208488 1.9487492 1.4798791e-39
-0.53827262 0.095577508 1.9563025 1.4795175e-39
-0.52747065 0.095061675 1.9457443 1.4795175e-39
-0.51731366 0.094648153 1.9372802 1.4798749e-39
-0.51167697 0.095061675 1.9457443 1.3880394e-39
-0.50274646 0.094866626 1.941752 1.480242e-39
-0.4915877 0.094238207 1.9288894 1.4805993e-39
-0.19974683 0.093216978 1.9079866 1.5720719e-39
-0.19435428 0.094358407 1.9313496 1.4802336e-39
-0.18694507 0.094575547 1.9357941 1.6642661e-39
-0.1774102 0.093689203 1.9176521 1.4802364e-39
-0.1691988 0.093452491 1.9128072 1.5720747e-39
-0.16106936 0.093240477 1.9084675 1.3884023e-39
-0.15297674 0.093029417 1.9041476 2.6784181e-39
-0.13758989 0.093076237 1.9051058 2.3074607e-39
0.024736896 0.092912577 1.901756 1.5709803e-39
0.073179178 0.095701158 1.9588333 1.3873177e-39
0.35013792 0.093240477 1.9084675 1.2943892e-39
0.38779044 0.09298265 1.9031903 1.3858674e-39
0.43446299 0.093052819 1.9046266 1.2940277e-39
0.44487903 0.093618065 1.9161961 1.2940277e-39
0.45311469 0.093712941 1.918138 1.2025537e-39
0.46324682 0.09419021 1.927907 1.1103609e-39
0.47324046 0.094623938 1.9367845 1.4791448e-39
0.48184055 0.094769403 1.9397619 1.3865876e-39
0.48983863 0.094793685 1.9402591 1.2014691e-39
0.49963388 0.095159501 1.9477465 1.0167107e-39
0.50976837 0.095577508 1.9563025 1.0163492e-39
0.51597482 0.095257528 1.9497529 1.1089077e-39
0.52361828 0.095208488 1.9487492 1.3851373e-39
0.53234947 0.095355757 1.9517635 1.2940207e-39
0.53943634 0.095208488 1.9487492 1.2940235e-39
0.54678243 0.095110558 1.9467449 1.3858618e-39
0.55654377 0.095429555 1.9532743 1.3862191e-39
0.5646168 0.095454186 1.9537783 1.3862177e-39
0.57210338 0.095380343 1.9522668 1.2940221e-39
0.58107555 0.095552817 1.9557972 1.3854988e-39
0.58916539 0.095577508 1.9563025 1.385859e-39
0.58828837 0.094166234 1.9274162 1.3858576e-39
1.0124283 0.092889242 1.9012785 1.016352e-39
1.0578688 0.096324213 1.9715861 1.0159904e-39
1.0658705 0.096324213 1.9715861 9.2415353e-40
1.0787838 0.09604907 1.9659545 1.0159848e-39
-0.85343575 0.10227512 1.9328289 1.2036439e-39
-0.84312809 0.10293207 1.9452443 1.2040026e-39
-0.82317752 0.10144635 1.9171666 1.2036439e-39
-0.81333703 0.10119011 1.9123241 1.2036425e-39
-0.80577934 0.10121567 1.9128072 1.2032824e-39
-0.79721051 0.10111348 1.910876 6.5371274e-40
-0.78905684 0.10106247 1.9099119 3.7022712e-39
-0.78130543 0.10106247 1.9099119 1.0224869e-39
-0.77238488 0.10090973 1.9070253 1.3873121e-39
-0.76464516 0.10090973 1.9070253 1.5720677e-39
-0.75690544 0.10090973 1.9070253 1.2025635e-39
-0.72466886 0.10073212 1.9036688 1.2954766e-39
-0.70325893 0.10098604 1.9084675 1.3869478e-39
-0.69656688 0.10113901 1.9113585 2.9485099e-39
-0.69619155 0.10222292 1.9318424 2.7648417e-39
-0.69099593 0.10261568 1.939265 1.2951179e-39
-0.68016362 0.10217078 1.9308572 1.2958423e-39
-0.66942477 0.10172971 1.9225218 1.2958409e-39
-0.66078317 0.10160071 1.9200839 1.2954766e-39
-0.65216351 0.10147204 1.9176521 1.2029208e-39
-0.64421749 0.10144635 1.9171666 2.6758649e-39
-0.6367591 0.10149775 1.918138 7.6544219e-39
-0.6291337 0.10152347 1.9186242 1.9394041e-39
-0.62150443 0.10154921 1.9191104 1.3873191e-39
-0.61371565 0.10154921 1.9191104 1.3876792e-39
-0.60485363 0.10136934 1.9157113 1.2958409e-39
-0.59587246 0.10116455 1.9118412 1.2954808e-39
-0.58722347 0.10101151 1.9089488 1.388038e-39
-0.58020741 0.10113901 1.9113585 1.2958437e-39
-0.5724501 0.10113901 1.9113585 1.2962011e-39
-0.5679909 0.10172971 1.9225218 1.2962025e-39
-0.56319165 0.10227512 1.9328289 1.3876806e-39
-0.55920178 0.10298499 1.9462444 1.4798777e-39
-0.55848134 0.10432594 1.9715861 1.4802336e-39
-0.54410338 0.10311753 1.9487492 1.4798749e-39
-0.53980696 0.10381229 1.9618789 1.5720719e-39
-0.52978534 0.10341033 1.9542826 1.480235e-39
-0.51957381 0.10295852 1.9457443 1.3883967e-39
-0.51339221 0.10330367 1.9522668 1.3876778e-39
-0.50494808 0.10319722 1.9502553 1.3884009e-39
-0.20696886 0.10070679 1.9031903 1.5724348e-39
-0.1996462 0.10090973 1.9070253 1.5724292e-39
-0.19470197 0.10237966 1.9348047 1.5727894e-39
-0.18699287 0.10245822 1.9362892 1.4805937e-39
-0.17727549 0.101395 1.9161961 1.4805951e-39
-0.16868736 0.10090973 1.9070253 1.5727922e-39
-0.1608666 0.10085892 1.9060651 1.480235e-39
-0.1527846 0.1006309 1.901756 3.5121556e-39
-0.1374861 0.10073212 1.9036688 1.6635375e-39
0.072466694 0.10264198 1.9397619 1.479156e-39
0.35013792 0.10098604 1.9084675 1.2940305e-39
0.39073718 0.10147204 1.9176521 1.3865876e-39
0.3966113 0.10098604 1.9084675 1.2943948e-39
0.4197422 0.10096059 1.9079866 1.1103637e-39
0.43008715 0.10157496 1.919597 1.3858702e-39
0.43798894 0.10160071 1.9200839 1.3862191e-39
0.44600788 0.10165228 1.9210583 1.3858618e-39
0.45357436 0.10160071 1.9200839 1.5702628e-39
0.46324682 0.10201468 1.927907 1.3862261e-39
0.47360393 0.10256314 1.9382721 1.2018264e-39
0.48147047 0.10256314 1.9382721 1.0170708e-39
0.48871139 0.10243202 1.9357941 9.24871e-40
0.49796844 0.10272093 1.941254 1.0167079e-39
0.50806171 0.10317065 1.9497529 1.2011048e-39
0.51478165 0.10293207 1.9452443 1.2940221e-39
0.52133697 0.10266828 1.9402591 1.2940221e-39
0.53070766 0.10295852 1.9457443 1.2936633e-39
0.53874296 0.10298499 1.9462444 1.2940221e-39
0.54580003 0.10282639 1.9432471 1.2940221e-39
0.55640018 0.10333031 1.9527704 1.2940235e-39
0.56272894 0.10303797 1.9472456 1.3858618e-39
0.57883263 0.103091 1.9482478 1.2940249e-39
1.0119201 0.10055513 1.900324 9.2415353e-40
1.0510262 0.10365113 1.9588333 9.237934e-40
1.0614479 0.10389306 1.9634053 9.237934e-40
1.081874 0.10432594 1.9715861 1.0159862e-39
-0.85256511 0.11000721 1.9308572 1.1110853e-39
-0.84118295 0.11057121 1.9407564 1.204004e-39
-0.82151324 0.10900639 1.9132906 1.2954808e-39
-0.81231111 0.1088139 1.9099119 1.295478e-39
-0.80476272 0.10884135 1.9103938 1.1114427e-39
-0.79640645 0.10875902 1.9089488 6.5370433e-40
-0.78846014 0.10873161 1.9084675 3.9795643e-39
-0.78071457 0.10873161 1.9084675 1.390905e-39
-0.77160746 0.10854008 1.9051058 1.2951179e-39
-0.76406777 0.1085674 1.9055854 1.3880352e-39
-0.75614363 0.10854008 1.9051058 1.1110853e-39
-0.73147529 0.10832202 1.9012785 1.2954766e-39
-0.72503346 0.10851277 1.9046266 1.295478e-39
-0.69727099 0.10900639 1.9132906 2.3056559e-39
-0.7028271 0.11111239 1.9502553 2.1216303e-39
-0.69473296 0.11108377 1.9497529 1.3873121e-39
-0.68365073 0.11057121 1.9407564 1.4795133e-39
-0.67249864 0.11003528 1.9313496 1.3876764e-39
-0.66313773 0.10978322 1.9269257 1.3873121e-39
-0.65381956 0.10953232 1.9225218 1.3873107e-39
-0.64568907 0.10947672 1.9215459 1.9365104e-39
-0.63821435 0.10953232 1.9225218 7.7466526e-39
-0.6305719 0.10956014 1.9230101 2.3125264e-39
-0.62292552 0.10958797 1.9234986 1.2954836e-39
-0.61527526 0.10961583 1.9239875 1.4795161e-39
-0.60577333 0.10931026 1.9186242 1.4798735e-39
-0.59677666 0.10908909 1.9147422 1.4798721e-39
-0.58826172 0.10895132 1.9123241 1.4795175e-39
-0.58006096 0.10886882 1.910876 1.3876806e-39
-0.57172841 0.10875902 1.9089488 1.2958409e-39
-0.56842399 0.10961583 1.9239875 1.3880366e-39
-0.56463313 0.1104014 1.937776 1.4798749e-39
-0.55905807 0.11085538 1.9457443 1.4798791e-39
-0.55601978 0.11183258 1.9628962 1.3880422e-39
-0.54090112 0.11037315 1.9372802 1.4802364e-39
-0.53536749 0.11085538 1.9457443 1.4802336e-39
-0.52638841 0.11062793 1.941752 1.4802322e-39
-0.5159933 0.11009145 1.9323356 1.4798707e-39
-0.50945115 0.11037315 1.9372802 1.2958423e-39
-0.49726239 0.10942118 1.920571 1.480235e-39
-0.4915877 0.1098951 1.9288894 1.4798777e-39
-0.20738591 0.10864944 1.9070253 1.5724348e-39
-0.19979718 0.10873161 1.9084675 1.4805951e-39
-0.1950509 0.11042967 1.9382721 1.4805965e-39
-0.18642074 0.10997916 1.9303648 1.4805979e-39
-0.17768022 0.10942118 1.920571 1.572432e-39
-0.16907065 0.10889631 1.9113585 1.4802392e-39
-0.16110997 0.10875902 1.9089488 1.7561072e-39
-0.1528614 0.10840369 1.902712 2.8649743e-39
-0.13755527 0.10851277 1.9046266 1.5717034e-39
0.35496989 0.11023211 1.9348047 1.2021894e-39
0.35951477 0.10922722 1.9171666 1.1096308e-39
0.3683216 0.10953232 1.9225218 1.2014677e-39
0.37403461 0.10892381 1.9118412 1.1096406e-39
0.38363454 0.10944894 1.9210583 1.3858688e-39
0.39262673 0.10978322 1.9269257 1.2940305e-39
0.3989242 0.10936569 1.919597 1.3865862e-39
0.40263146 0.10826764 1.900324 1.4787847e-39
0.41210243 0.10873161 1.9084675 1.2943948e-39
0.419848 0.10873161 1.9084675 1.2943962e-39
0.43249968 0.10997916 1.9303648 1.3862289e-39
0.44055876 0.11003528 1.9313496 1.2940235e-39
0.44680148 0.10964369 1.9244765 1.2014663e-39
0.4533444 0.10933797 1.9191104 1.1092735e-39
0.46407405 0.11003528 1.9313496 1.1089077e-39
0.47433257 0.11059956 1.941254 1.0167093e-39
0.48122406 0.11037315 1.9372802 1.017068e-39
0.48758936 0.11003528 1.9313496 1.0174282e-39
0.49694908 0.11037315 1.9372802 1.2018236e-39
0.50701714 0.11085538 1.9457443 1.3862191e-39
0.51346236 0.11054287 1.9402591 1.3858576e-39
0.51934052 0.11011955 1.9328289 1.2943808e-39
0.5281288 0.11031669 1.9362892 1.2021838e-39
0.53626156 0.11037315 1.9372802 1.4776945e-39
0.54342878 0.11023211 1.9348047 1.3858604e-39
0.55354464 0.1106847 1.9427484 1.2018264e-39
0.55884808 0.1101758 1.9338163 1.3858604e-39
1.0119201 0.10826764 1.900324 1.0163478e-39
1.0510262 0.11160111 1.9588333 1.015989e-39
1.0614479 0.11186159 1.9634053 1.0159876e-39
1.081874 0.11232768 1.9715861 1.015989e-39
-0.85278261 0.11787371 1.9313496 1.2036397e-39
-0.83903211 0.11814496 1.9357941 1.2036425e-39
-0.81902945 0.11641847 1.9075059 1.2951193e-39
-0.81108344 0.11638916 1.9070253 1.2951179e-39
-0.80354613 0.11641847 1.9075059 1.1110853e-39
-0.79560399 0.11638916 1.9070253 7.4553703e-40
-0.7876659 0.11635984 1.9065452 3.9781182e-39
-0.77973181 0.11633055 1.9060651 1.5749292e-39
-0.77063787 0.1161259 1.902712 1.2951137e-39
-0.76329929 0.11618429 1.9036688 1.2958353e-39
-0.75500369 0.11609672 1.9022338 1.4798693e-39
-0.73350155 0.11635984 1.9065452 1.2951179e-39
-0.72686207 0.11653592 1.9094303 1.2951179e-39
-0.69903761 0.11706737 1.918138 2.1216191e-39
-0.70102125 0.11872172 1.9452443 1.7542884e-39
-0.6933046 0.11875223 1.9457443 1.3869534e-39
-0.68452811 0.11859983 1.9432471 1.2958409e-39
-0.67267025 0.11790378 1.9318424 1.3876792e-39
-0.66229492 0.11745423 1.9244765 1.2954794e-39
-0.65299046 0.11718614 1.9200839 1.2032782e-39
-0.64470726 0.11709704 1.9186242 1.1110811e-39
-0.63724345 0.11715642 1.919597 3.7890718e-39
-0.62945271 0.11715642 1.919597 4.3429574e-39
-0.62181967 0.11718614 1.9200839 1.4798665e-39
-0.61418271 0.11721586 1.920571 1.4795147e-39
-0.60531312 0.11700809 1.9171666 1.3876834e-39
-0.59677666 0.11686013 1.9147422 1.4802378e-39
-0.5878163 0.11662416 1.910876 1.3876792e-39
-0.57947594 0.11650654 1.9089488 1.2040069e-39
-0.5721612 0.11659473 1.9103938 1.4798721e-39
-0.5662654 0.11697847 1.9166812 1.5717104e-39
-0.56319165 0.11796398 1.9328289 1.4795189e-39
-0.55605698 0.11811476 1.9352993 1.3876834e-39
-0.54946667 0.11838712 1.9397619 1.3880408e-39
-0.53487897 0.11691926 1.9157113 1.2962053e-39
-0.52924669 0.11739454 1.9234986 1.2965612e-39
-0.51867282 0.11677153 1.9132906 1.4802336e-39
-0.50048643 0.11615509 1.9031903 1.4798777e-39
-0.20754275 0.11647717 1.9084675 1.5727936e-39
-0.19979718 0.11647717 1.9084675 1.6646277e-39
-0.19580282 0.11875223 1.9457443 1.4805937e-39
-0.18561618 0.11730514 1.9220337 1.4805965e-39
-0.17691727 0.11671254 1.9123241 1.6642675e-39
-0.16890007 0.11653592 1.9094303 1.4802378e-39
-0.1609882 0.11641847 1.9075059 1.757189e-39
-0.15270789 0.11600927 1.9008011 2.0334158e-39
-0.13752067 0.11621352 1.9041476 1.4795063e-39
0.37337461 0.11647717 1.9084675 1.0170694e-39
0.38334274 0.11715642 1.919597 1.0167093e-39
0.39222741 0.11748409 1.9249659 1.1092679e-39
0.39872202 0.11709704 1.9186242 1.1092679e-39
0.40263146 0.11598016 1.900324 1.2014663e-39
0.41210243 0.11647717 1.9084675 1.0174338e-39
0.42080268 0.11674202 1.9128072 1.2014663e-39
0.43249968 0.1178136 1.9303648 1.1092679e-39
0.43977344 0.11766359 1.927907 1.2014635e-39
0.44680148 0.11745423 1.9244765 1.2007446e-39
0.45426559 0.11736473 1.9230101 1.1089077e-39
0.46514198 0.11814496 1.9357941 1.017068e-39
0.47481954 0.11859983 1.9432471 1.2011006e-39
0.47987333 0.11790378 1.9318424 1.2014621e-39
0.48758936 0.11787371 1.9313496 1.2940179e-39
0.49758568 0.11838712 1.9397619 1.2940207e-39
0.50688684 0.11872172 1.9452443 1.3862191e-39
0.51359403 0.11844782 1.9407564 1.3862163e-39
0.51854622 0.11778357 1.9298728 1.2943822e-39
0.52718496 0.11796398 1.9328289 1.2943822e-39
0.53502941 0.11796398 1.9328289 1.385859e-39
0.54342878 0.11808457 1.9348047 1.5698943e-39
0.55326074 0.11850858 1.941752 1.3858562e-39
0.90004146 0.11748409 1.9249659 1.1089063e-39
1.0373381 0.11799411 1.9333224 1.0159848e-39
1.0486659 0.11838712 1.9397619 1.0159834e-39
1.0844156 0.12061209 1.9762179 9.2415073e-40
-0.8480233 0.12501055 1.920571 1.2036397e-39
-0.83540088 0.12545611 1.9274162 1.2958381e-39
-0.81779319 0.12397273 1.9046266 1.295478e-39
-0.80985945 0.12394155 1.9041476 1.2954766e-39
-0.80233324 0.12397273 1.9046266 1.1114455e-39
-0.79420364 0.12391038 1.9036688 9.2884788e-40
-0.78647757 0.12391038 1.9036688 4.0685103e-39
-0.77855569 0.12387923 1.9031903 2.1270183e-39
-0.76967067 0.12369267 1.900324 1.2951137e-39
-0.76253235 0.12378588 1.901756 1.2036425e-39
-0.7333169 0.12406636 1.9060651 1.203281e-39
-0.69583648 0.12568007 1.9308572 1.3865862e-39
-0.68993556 0.12603365 1.9362892 1.2951193e-39
-0.68435246 0.12645409 1.9427484 1.2958409e-39
-0.67181313 0.12558399 1.9293809 1.3880394e-39
-0.66280031 0.12536037 1.9259453 1.295478e-39
-0.65265942 0.12491549 1.9191104 1.2036369e-39
-0.64438063 0.12482057 1.9176521 1.202918e-39
-0.63659781 0.12482057 1.9176521 2.7659011e-39
-0.62897432 0.12485219 1.918138 8.7568122e-39
-0.62118948 0.12485219 1.918138 1.9397628e-39
-0.61356014 0.12488383 1.9186242 1.3873163e-39
-0.60546643 0.12482057 1.9176521 1.3873219e-39
-0.59722978 0.12472579 1.9161961 1.3876834e-39
-0.58811319 0.12444232 1.9118412 1.571353e-39
-0.58006096 0.1243795 1.910876 1.4795189e-39
-0.5705775 0.12400392 1.9051058 1.480235e-39
-0.56512082 0.1245052 1.9128072 1.2962053e-39
-0.56104314 0.12532848 1.9254555 1.4802364e-39
-0.55662614 0.12609816 1.9372802 1.3880394e-39
-0.54876363 0.12609816 1.9372802 1.2043656e-39
-0.53718972 0.12523293 1.9239875 1.3884009e-39
-0.52951574 0.12526476 1.9244765 1.2043642e-39
-0.52410322 0.12584054 1.9333224 1.2954822e-39
-0.51311213 0.12507401 1.9215459 1.3873205e-39
-0.50557011 0.12513752 1.9225218 1.2958437e-39
-0.4927623 0.12387923 1.9031903 1.3883995e-39
-0.20780466 0.1243795 1.910876 1.6642703e-39
-0.20040339 0.12459964 1.9142581 1.5720733e-39
-0.19605476 0.12681204 1.9482478 1.4805923e-39
-0.18552198 0.12504227 1.9210583 1.5724306e-39
-0.17616083 0.12394155 1.9041476 1.4798735e-39
-0.16855998 0.12403513 1.9055854 1.4802322e-39
-0.16082612 0.12403513 1.9055854 1.5731481e-39
-0.13745153 0.12387923 1.9031903 1.5713432e-39
0.36925927 0.12545611 1.9274162 1.1096294e-39
0.37337461 0.12422273 1.9084675 1.2014635e-39
0.38441488 0.12529662 1.9249659 1.1089035e-39
0.39262673 0.12542418 1.9269257 1.1085476e-39
0.39943057 0.12510575 1.9220337 1.2014635e-39
0.40435687 0.12422273 1.9084675 1.1089063e-39
0.41210243 0.12422273 1.9084675 1.017068e-39
0.42059016 0.12444232 1.9118412 1.0167093e-39
0.43118039 0.12526476 1.9244765 1.1089035e-39
0.43921423 0.12532848 1.9254555 1.1089049e-39
0.44646102 0.12516932 1.9230101 1.2007418e-39
0.45426559 0.12516932 1.9230101 1.2929389e-39
0.46693283 0.12648655 1.9432471 1.293299e-39
0.47481954 0.12648655 1.9432471 1.2936591e-39
0.48060915 0.12593703 1.9348047 1.2943794e-39
0.48858649 0.12596922 1.9352993 1.4784105e-39
0.49758568 0.1262597 1.9397619 1.2943794e-39
0.50701714 0.12664908 1.9457443 1.3865764e-39
0.51359403 0.12632443 1.9407564 1.2940207e-39
0.51881075 0.12568007 1.9308572 1.2943836e-39
0.52705044 0.12577631 1.9323356 1.3862205e-39
0.53366697 0.12548806 1.927907 1.3865764e-39
0.54273528 0.12577631 1.9323356 1.478056e-39
0.55184537 0.12606589 1.9367845 1.3862163e-39
0.74516171 0.12422273 1.9084675 1.293299e-39
0.76238251 0.1245052 1.9128072 1.2933032e-39
0.77053505 0.12456815 1.9137743 1.1096266e-39
0.90302628 0.12571214 1.9313496 1.2007432e-39
0.91179514 0.12584054 1.9333224 1.1085462e-39
0.91556418 0.12422273 1.9084675 1.1085434e-39
1.0949911 0.12988709 1.9954904 9.2450946e-40
-0.84204227 0.13186857 1.9070253 1.2954766e-39
-0.83201182 0.13273789 1.919597 1.2958381e-39
-0.81738192 0.13163647 1.9036688 1.2961941e-39
-0.80924886 0.13157031 1.902712 1.2954766e-39
-0.80192977 0.13163647 1.9036688 1.2036411e-39
-0.79380447 0.13157031 1.902712 1.1121601e-39
-0.78608227 0.13157031 1.902712 4.7120777e-39
-0.77816451 0.13153724 1.9022338 2.5872734e-39
-0.76253235 0.13150421 1.901756 1.2951221e-39
-0.73239493 0.13163647 1.9036688 1.2029222e-39
-0.69090271 0.13256983 1.9171666 1.4791448e-39
-0.68940663 0.13378948 1.9348047 1.2958409e-39
-0.68400139 0.13426988 1.941752 1.2954836e-39
-0.67164201 0.13338044 1.9288894 1.2958409e-39
-0.66263175 0.13314299 1.9254555 1.4795119e-39
-0.65282494 0.13273789 1.919597 1.2954822e-39
-0.64519775 0.13277155 1.9200839 1.2032852e-39
-0.63692045 0.13267061 1.9186242 2.0279928e-39
-0.62929314 0.13270424 1.9191104 8.3902339e-39
-0.62166196 0.13273789 1.919597 2.3128922e-39
-0.61387128 0.13273789 1.919597 1.2040083e-39
-0.60623425 0.13277155 1.9200839 1.4798763e-39
-0.59783506 0.13263701 1.918138 1.3880394e-39
-0.5888567 0.13236871 1.9142581 1.5713516e-39
-0.58094072 0.13233525 1.9137743 1.4798735e-39
-0.57288402 0.13226838 1.9128072 1.2958437e-39
-0.56640875 0.13256983 1.9171666 1.2962053e-39
-0.5587694 0.13260341 1.9176521 1.2040111e-39
-0.5553472 0.13365287 1.9328289 1.2962025e-39
-0.54932588 0.13409792 1.939265 1.2962025e-39
-0.53746289 0.13310914 1.9249659 1.3880422e-39
-0.53045964 0.13331251 1.927907 1.4798763e-39
-0.52316809 0.13344845 1.9298728 1.3880394e-39
-0.51350307 0.13297389 1.9230101 1.5717104e-39
-0.50685716 0.13327858 1.9274162 1.388038e-39
-0.49412864 0.1319683 1.9084675 1.5720733e-39
-0.49021384 0.13300769 1.9234986 1.4798749e-39
-0.20691684 0.13157031 1.902712 1.5724334e-39
-0.18661106 0.13361874 1.9323356 1.5727936e-39
-0.17705144 0.13233525 1.9137743 1.4802378e-39
-0.16954148 0.13253626 1.9166812 1.6642717e-39
-0.16135408 0.13220158 1.9118412 1.8483001e-39
-0.13752067 0.13166958 1.9041476 1.4791504e-39
0.36673841 0.13236871 1.9142581 1.3862219e-39
0.38179389 0.13220158 1.9118412 1.201825e-39
0.39103433 0.13270424 1.9191104 1.2014691e-39
0.39831823 0.13253626 1.9166812 1.3858632e-39
