# .PCD v0.7 - Point Cloud Data file format
VERSION 0.7
FIELDS x y z rgb
SIZE 4 4 4 4
TYPE F F F F
COUNT 1 1 1 1
WIDTH 1024
HEIGHT 1
VIEWPOINT 0 0 0 1 0 0 0
POINTS 1024
DATA ascii
1.7133888 -0.30216187 3.2423515 2.1176198e-39
1.733974 -0.30346149 3.2562971 1.9339474e-39
1.7793325 -0.30904424 3.3162026 2.0254242e-39
1.795938 -0.30958664 3.3220232 2.0254256e-39
1.8149954 -0.3105405 3.3322582 2.0254242e-39
1.7738669 -0.30125874 3.2326605 2.0254228e-39
1.9257684 -0.31315935 3.3603599 2.301288e-39
2.1221383 -0.34266537 3.6769745 2.3012866e-39
2.5101023 -0.4024803 4.3188195 2.4853163e-39
-1.5525399 -0.2231552 2.5036016 9.1248226e-39
-1.5433998 -0.22330289 2.5052583 9.6776362e-39
-1.5241537 -0.22198071 2.4904246 9.9542231e-39
-1.5095772 -0.22132546 2.4830735 1.0046779e-38
-1.4975349 -0.22103548 2.47982 1.0138973e-38
-1.4830985 -0.2203858 2.4725313 1.0323367e-38
-1.4778901 -0.22110792 2.4806325 1.041556e-38
-1.4853429 -0.22374713 2.5102422 1.0691428e-38
-1.474666 -0.22367297 2.5094104 1.0875819e-38
-1.4688634 -0.2243422 2.5169184 1.0968375e-38
-1.4471023 -0.2225664 2.4969957 1.1060572e-38
-1.450845 -0.22471572 2.5211091 1.1153488e-38
-1.4358317 -0.22396991 2.5127418 1.1338241e-38
-1.4755871 -0.23181771 2.6007869 1.1338241e-38
-1.4787474 -0.23398799 2.6251354 1.1522272e-38
-1.4337897 -0.2285206 2.5637965 1.1890694e-38
-1.4262824 -0.22898586 2.5690162 1.2258757e-38
-1.4058381 -0.22736567 2.5508392 1.2628255e-38
-1.3893999 -0.22637415 2.5397151 1.3273267e-38
-1.3786299 -0.22629823 2.5388634 1.3827163e-38
-1.3546971 -0.22404426 2.513576 1.4380695e-38
-1.3325505 -0.22205375 2.4912441 1.5301572e-38
-1.3181025 -0.22132546 2.4830735 1.6131335e-38
-1.3175315 -0.22293404 2.5011201 1.6408642e-38
-1.2966714 -0.22110792 2.4806325 1.6409361e-38
-1.2849196 -0.2208185 2.4773858 1.6317165e-38
-1.2731986 -0.22052985 2.4741473 1.6408642e-38
-1.2586327 -0.21973993 2.4652851 1.6408283e-38
-1.2482208 -0.2196684 2.4644828 1.6592673e-38
-1.2354037 -0.21916899 2.4588797 1.8251464e-38
-1.2183019 -0.21789517 2.4445887 1.8620604e-38
-1.211118 -0.21838878 2.4501264 1.8067792e-38
-1.2093933 -0.21988313 2.4668918 1.8251823e-38
-1.2009466 -0.2201701 2.4701111 1.8251824e-38
-1.1703027 -0.21635823 2.4273455 1.8343663e-38
-1.1717216 -0.21845949 2.4509196 1.8251831e-38
-1.1550438 -0.21719386 2.4367206 1.8160715e-38
-1.0177767 -0.22176185 2.4879694 1.9541844e-38
-1.0024086 -0.22060195 2.474956 1.9450007e-38
-0.9904213 -0.2201701 2.4701111 1.963476e-38
-0.98976111 -0.22227317 2.4937057 1.954257e-38
-0.98028612 -0.22241969 2.4953496 1.9543289e-38
-0.97724479 -0.22404426 2.513576 1.9635482e-38
-0.96512085 -0.22359885 2.5085788 1.9728037e-38
-0.96291614 -0.22546653 2.5295324 2.0003908e-38
-0.94132763 -0.22278684 2.4994688 1.9911714e-38
-0.91339207 -0.21853022 2.4517133 2.0279775e-38
-0.90402722 -0.21867186 2.4533021 2.0096461e-38
-0.83056593 -0.22576827 2.5329177 2.0925142e-38
-0.81864268 -0.22531597 2.5278432 2.1017339e-38
-0.8140915 -0.22690697 2.5456929 2.1017337e-38
-0.79282969 -0.22382134 2.5110748 2.1017337e-38
-0.7847206 -0.22441681 2.5177555 2.1017699e-38
-0.77321655 -0.22404426 2.513576 2.1018053e-38
-0.7609939 -0.22345078 2.5069175 2.1019499e-38
-0.7508195 -0.22345078 2.5069175 1.4663759e-38
-0.74089044 -0.22352479 2.5077479 1.9346579e-39
-0.72974581 -0.22322902 2.5044296 5.5317798e-40
-0.71768224 -0.22263983 2.4978194 8.2976487e-40
-0.70824581 -0.22286041 2.5002942 1.3825799e-39
-0.69580042 -0.22212684 2.492064 1.5673327e-39
-0.66702372 -0.21608111 2.4242365 1.4751385e-39
-0.67646289 -0.22241969 2.4953496 9.2232064e-40
-0.64425164 -0.21504822 2.4126484 5.5317798e-40
-0.71834761 -0.25123653 2.8186488 3.6842659e-40
-0.78428543 -0.27873662 3.1271751 3.6878392e-40
-0.86763978 -0.31343305 3.516438 3.6878532e-40
-0.95942652 -0.35238713 3.9534678 5.5317658e-40
-1.0882982 -0.40651888 4.5607777 5.5317518e-40
-0.96829247 -0.36795056 4.1280756 3.6878532e-40
-0.89908385 -0.34766683 3.9005105 4.6097955e-40
-0.91045946 -0.35837564 4.0206537 3.6878392e-40
-0.89177352 -0.35742655 4.0100055 3.6842379e-40
-0.99996477 -0.40824038 4.580091 3.6842519e-40
-0.97547513 -0.40578553 4.5525498 3.6842519e-40
-0.84294939 -0.35742655 4.0100055 2.7658969e-40
-0.84092772 -0.36358908 4.0791435 3.6878392e-40
-0.87480569 -0.38583267 4.3286967 3.6878392e-40
-0.91925722 -0.41374698 4.6418705 3.6878672e-40
-0.89221257 -0.40997651 4.5995693 2.7694842e-40
-0.89474499 -0.41992617 4.7111955 3.6878532e-40
-0.88777828 -0.42575479 4.776587 2.7694983e-40
-0.86761785 -0.43508789 4.8812966 5.5317658e-40
-0.84944999 -0.43593109 4.8907561 7.3756784e-40
-0.83771813 -0.44019657 4.938611 3.6914546e-40
-0.8176747 -0.44019657 4.938611 5.5353812e-40
-0.7976312 -0.44019657 4.938611 6.4537501e-40
-0.76955581 -0.43564966 4.887599 7.3757205e-40
-0.73269105 -0.42575479 4.776587 8.2940614e-40
-0.7210387 -0.43037075 4.8283744 1.1056315e-39
-0.70549196 -0.43285525 4.8562479 1.1063504e-39
-0.68666369 -0.43341127 4.8624859 1.0152548e-39
-0.26253894 -0.21518537 2.4141872 9.237948e-40
-0.25105968 -0.21375398 2.3981283 9.2451367e-40
-0.2525253 -0.22367297 2.5094104 9.2415634e-40
-0.25107902 -0.23173809 2.5998938 9.2451367e-40
-0.24219069 -0.23334071 2.6178737 8.3231804e-40
-0.23605527 -0.2378644 2.6686256 9.2451507e-40
-0.22690418 -0.23963825 2.6885266 9.2415494e-40
-0.21326631 -0.23661338 2.6545901 1.0163506e-39
-0.20406674 -0.23845276 2.6752264 9.2451647e-40
-0.19718073 -0.24335425 2.7302167 9.2451787e-40
-0.23038194 -0.30125952 3.3798621 9.2451507e-40
-0.22689523 -0.31548449 3.5394533 1.016352e-39
-0.23689538 -0.35165259 3.9452271 1.016352e-39
-0.19110711 -0.30424768 3.4133863 1.0167093e-39
-0.028468996 -0.16475131 1.848362 1.0167121e-39
-0.022365196 -0.17573473 1.9715861 9.248766e-40
-0.015389425 -0.1882872 2.1124136 9.2487801e-40
-0.0071576447 -0.19772087 2.218251 1.0163548e-39
0.0019948096 -0.21375398 2.3981283 1.0167135e-39
0.012762588 -0.2326168 2.6097522 1.0167135e-39
0.026465205 -0.26360208 2.9573791 1.1085504e-39
0.042742006 -0.2928912 3.2859769 9.248766e-40
0.06057395 -0.31637195 3.5494096 1.1089091e-39
0.085205592 -0.35952121 4.0335059 1.0167149e-39
0.097026743 -0.34342054 3.8528707 1.1089119e-39
0.10975915 -0.33456686 3.7535403 1.0170736e-39
0.12804005 -0.34272286 3.8450437 1.1089119e-39
0.13967285 -0.3332451 3.7387116 1.0163548e-39
0.15469372 -0.33291629 3.7350225 1.1085518e-39
0.16918468 -0.33160755 3.7203395 1.2918514e-39
0.18347235 -0.33014742 3.7039583 1.4751371e-39
0.19831093 -0.32982469 3.7003376 1.4755168e-39
0.21353757 -0.33014742 3.7039583 1.5709901e-39
0.22890615 -0.33063269 3.7094026 1.4795231e-39
0.24265307 -0.32886031 3.689518 1.3876848e-39
0.25563383 -0.32631594 3.6609724 1.3880478e-39
0.2724683 -0.32870013 3.6877208 1.3880464e-39
0.27472258 -0.31416264 3.5246232 1.388045e-39
0.709158 -0.36048147 4.0442791 1.2951305e-39
0.71300286 -0.35423693 3.974221 1.3873261e-39
0.83573836 -0.40602967 4.5552893 1.3873247e-39
0.84156716 -0.40001264 4.4877834 1.3873219e-39
0.92009187 -0.39463237 4.4274216 1.3873233e-39
0.95880675 -0.40336004 4.5253382 1.2958451e-39
0.95157766 -0.39279473 4.406805 1.295485e-39
0.9415133 -0.3814705 4.2797575 1.387682e-39
0.94922423 -0.37762806 4.2366486 1.4795189e-39
0.93603814 -0.36575681 4.1034636 1.4795203e-39
0.94045854 -0.36106011 4.0507708 1.2954864e-39
0.94827342 -0.35780558 4.0142579 1.4791588e-39
0.97022414 -0.35990471 4.0378084 1.5709887e-39
0.98137772 -0.35799539 4.0163875 1.2929403e-39
0.98102432 -0.35201949 3.9493432 1.1070818e-39
0.9949767 -0.35128647 3.9411197 1.1059958e-39
1.0031389 -0.34856474 3.910584 1.3829401e-39
1.0169091 -0.34784606 3.9025211 2.0279521e-39
1.0253482 -0.34535381 3.8745604 1.7513638e-39
1.0368282 -0.34394562 3.8587618 1.4751385e-39
1.0487474 -0.34272286 3.8450437 1.1059958e-39
1.0600456 -0.34133604 3.8294845 6.4537501e-40
1.0696362 -0.33944735 3.8082952 5.5282065e-40
1.0807432 -0.33808684 3.7930315 5.5282065e-40
1.0740747 -0.33128196 3.7166867 8.2904601e-40
1.0564842 -0.32134348 3.605186 1.0130771e-39
1.0565258 -0.31696633 3.5560784 1.1052742e-39
1.068449 -0.31622368 3.5477464 1.0134387e-39
1.0767926 -0.31445542 3.5279081 2.3942039e-39
1.083537 -0.31227273 3.5034201 7.553897e-39
1.0871907 -0.30926734 3.4697025 8.9361097e-39
1.0912701 -0.30645838 3.4381883 8.5691405e-39
1.0957692 -0.3038367 3.4087756 8.2940039e-39
1.0982308 -0.30072251 3.3738372 7.7433581e-39
1.0886374 -0.29442465 3.3031809 7.6518856e-39
1.0958279 -0.29276413 3.2845514 7.8355523e-39
1.1029379 -0.29112223 3.2661307 7.6515142e-39
1.1278713 -0.29416797 3.3003011 7.4660454e-39
1.154349 -0.29754028 3.3381352 6.6370106e-39
1.1668679 -0.29727814 3.3351941 5.7154172e-39
1.1940805 -0.30072251 3.3738372 4.7005422e-39
1.2409539 -0.30898413 3.4665251 3.7771384e-39
1.2766511 -0.31430897 3.5262649 3.2236016e-39
1.328077 -0.32334515 3.6276429 2.5785966e-39
1.3811845 -0.33258814 3.7313409 1.8424777e-39
1.3726501 -0.32694831 3.6680672 1.3822212e-39
1.4255234 -0.33589911 3.7684872 1.2900242e-39
1.484412 -0.34606221 3.882508 1.1978285e-39
1.5307848 -0.35312471 3.9617429 1.1052742e-39
1.5468637 -0.35312471 3.9617429 9.2124304e-40
1.0988747 -0.24574703 2.7570615 8.2904461e-40
1.0767349 -0.23836854 2.6742814 9.208801e-40
1.0984528 -0.24074967 2.7009957 8.290432e-40
1.1193988 -0.24291624 2.7253027 1.2892997e-39
1.1092958 -0.23836854 2.6742814 1.934309e-39
1.1209414 -0.23853706 2.676172 2.0261459e-39
1.1788917 -0.24846147 2.7875149 2.1179814e-39
1.2366475 -0.2581566 2.8962858 2.1176226e-39
1.3238634 -0.27376118 3.0713553 2.026506e-39
1.4101241 -0.28887901 3.2409635 1.9343104e-39
1.5364032 -0.31183979 3.4985633 1.9339502e-39
1.7067666 -0.34324583 3.8509109 1.9339502e-39
1.7831647 -0.35535616 3.9867775 1.9339502e-39
1.7852437 -0.35257122 3.9555333 2.0257871e-39
1.8098074 -0.35423693 3.974221 2.0257857e-39
1.8346043 -0.35591844 3.9930859 1.9335901e-39
1.8469139 -0.35516912 3.9846795 1.8417532e-39
1.8552741 -0.35367996 3.967972 1.8417532e-39
1.8862069 -0.35648248 3.999414 1.7499177e-39
1.8944325 -0.35498229 3.9825833 1.7499191e-39
1.9095914 -0.35479566 3.9804893 1.7499191e-39
1.9156746 -0.35294002 3.959671 1.8413959e-39
1.2369378 -0.22599509 2.5354624 1.749559e-39
1.2226602 -0.22154345 2.4855189 1.6577221e-39
1.2625923 -0.22690697 2.5456929 1.6577221e-39
1.3067575 -0.23293798 2.6133554 1.6573647e-39
1.3718199 -0.24256697 2.7213843 1.5655292e-39
1.4009941 -0.24574703 2.7570615 1.5651719e-39
1.4431918 -0.25114304 2.8175998 1.5651705e-39
1.7082968 -0.2949394 3.3089557 1.4733336e-39
1.6325361 -0.27966073 3.1375427 1.473335e-39
1.6528044 -0.28094143 3.1519113 1.3814967e-39
1.6607567 -0.28012508 3.1427524 1.2893025e-39
1.6735116 -0.28012508 3.1427524 1.3814967e-39
1.7212781 -0.28594124 3.2080045 1.381138e-39
1.7387183 -0.28667006 3.2161813 1.2889424e-39
1.7645141 -0.28875539 3.2395768 1.1974656e-39
1.7231009 -0.27989271 3.1401455 1.1052714e-39
1.921504 -0.29885799 3.3529189 1.0130757e-39
2.1169975 -0.32694831 3.6680672 1.012717e-39
2.5015404 -0.38363919 4.3040881 1.1049112e-39
-1.5520267 -0.21292385 2.5027738 9.2170196e-39
-1.5449334 -0.21334703 2.5077479 9.8620303e-39
-1.5266647 -0.21222229 2.4945273 9.9542245e-39
-1.5135484 -0.21180357 2.4896057 1.0046777e-38
-1.4980257 -0.2110402 2.4806325 9.9556637e-39
-1.4874705 -0.21097107 2.47982 9.8627534e-39
-1.4851896 -0.21208254 2.4928846 9.6772775e-39
-1.4957577 -0.21505666 2.5278432 1.0507396e-38
-1.4850025 -0.21498488 2.5269995 1.0875819e-38
-1.4796854 -0.21570484 2.5354624 1.0784703e-38
-1.4509306 -0.21299428 2.5036016 1.0969094e-38
-1.4556924 -0.21520036 2.5295324 1.1061294e-38
-1.4382184 -0.21412723 2.5169184 1.1337881e-38
-1.4776175 -0.2215668 2.6043656 1.1522269e-38
-1.4670477 -0.2215668 2.6043656 1.1614466e-38
-1.4357345 -0.21841122 2.5672739 1.2167278e-38
-1.4238666 -0.21818925 2.5646648 1.2627895e-38
-1.406312 -0.21708618 2.5516989 1.3089232e-38
-1.392202 -0.21650241 2.5448372 1.38268e-38
-1.3823384 -0.21657521 2.5456929 1.4380338e-38
-1.3560477 -0.21405606 2.516082 1.5026065e-38
-1.3360677 -0.21250238 2.4978194 1.5855105e-38
-1.3202676 -0.21159483 2.4871521 1.659267e-38
-1.3179668 -0.21285349 2.5019467 1.6684866e-38
-1.2987992 -0.2113865 2.4847033 1.6133851e-38
-1.2857611 -0.21090199 2.4790082 1.5579961e-38
-1.274865 -0.21076396 2.4773858 1.6408284e-38
-1.2602742 -0.21000804 2.4685004 1.6592676e-38
-1.2498482 -0.2099396 2.4676957 1.6592315e-38
-1.235805 -0.20925753 2.4596786 1.7975599e-38
-1.2190892 -0.20810814 2.4461682 1.8528407e-38
-1.2122949 -0.20864744 2.4525075 1.8251823e-38
-1.2093933 -0.20987119 2.4668918 1.8251823e-38
-1.2021232 -0.21035098 2.4725313 1.8067432e-38
-1.1736895 -0.2071044 2.43437 1.8344377e-38
-1.1743828 -0.20898594 2.4564862 1.8160709e-38
-1.00327 -0.20864744 2.4525075 1.8897559e-38
-0.99428272 -0.20885041 2.4548934 1.9357813e-38
-0.98240823 -0.20844488 2.4501264 1.9541846e-38
-0.98071629 -0.21021366 2.4709175 1.9266699e-38
-0.96816015 -0.20966624 2.4644828 1.9174864e-38
-0.96160126 -0.2104197 2.4733391 1.9635123e-38
-0.95719182 -0.21166436 2.4879694 1.9635485e-38
-0.95715976 -0.21391387 2.5144107 1.9911711e-38
-0.93423373 -0.2110402 2.4806325 1.9819514e-38
-0.91260326 -0.21069503 2.4765754 1.991243e-38
-0.90462339 -0.21117859 2.4822593 1.9912793e-38
-0.82945591 -0.21520036 2.5295324 2.101626e-38
-0.81891614 -0.21512848 2.5286877 2.074111e-38
-0.81299806 -0.2162843 2.5422735 2.1109531e-38
-0.79256684 -0.21355924 2.5102422 2.1108814e-38
-0.78445971 -0.21412723 2.5169184 2.0925143e-38
-0.77295995 -0.21377188 2.5127418 2.0833662e-38
-0.7609939 -0.21327639 2.5069175 2.1019858e-38
-0.7508195 -0.21327639 2.5069175 1.3374821e-38
-0.74064511 -0.21327639 2.5069175 1.7509883e-39
-0.72950453 -0.21299428 2.5036016 7.3757064e-40
-0.71768224 -0.21250238 2.4978194 5.5281785e-40
-0.70871389 -0.21285349 2.5019467 5.5281785e-40
-0.69511402 -0.21180357 2.4896057 6.4573235e-40
-0.6678791 -0.20650679 2.4273455 6.4537501e-40
-0.67690909 -0.21243228 2.4969957 5.5317938e-40
-0.64404643 -0.20519105 2.4118798 5.5317658e-40
-0.622751 -0.20146847 2.3681235 4.6097955e-40
-0.6759339 -0.22210161 2.610652 4.6062082e-40
-0.7229231 -0.24132435 2.836602 2.7658969e-40
-0.78884715 -0.26759231 3.1453638 3.6878392e-40
-0.87250274 -0.30083823 3.5361471 3.6914405e-40
-0.9649694 -0.33828503 3.9763081 3.6914405e-40
-1.076624 -0.38384664 4.5118537 3.6914405e-40
-1.0044391 -0.36430696 4.2821779 3.6914546e-40
-0.9738403 -0.35942784 4.2248273 2.7658829e-40
-0.94353062 -0.3544825 4.1666985 1.8439406e-40
-0.93954712 -0.35942784 4.2248273 2.7622956e-40
-0.93810546 -0.36554748 4.2967596 2.7622956e-40
-0.91547132 -0.36348459 4.272512 2.7623096e-40
-0.89813119 -0.36348459 4.272512 2.7622956e-40
-0.90478945 -0.37338823 4.3889222 2.7658689e-40
-0.88543701 -0.37273997 4.3813024 1.8439406e-40
-0.8798759 -0.37798983 4.4430108 2.7658969e-40
-0.86539888 -0.37954903 4.461338 1.8439406e-40
-0.86617786 -0.38800883 4.5607777 2.7658969e-40
-0.85591763 -0.39178509 4.6051645 2.7658969e-40
-0.88061541 -0.41208872 4.8438201 2.7623096e-40
-0.85875893 -0.41103682 4.8314557 2.7658969e-40
-0.84508264 -0.41394261 4.8656111 6.4501348e-40
-0.83174998 -0.41715977 4.9034266 6.4537221e-40
-0.80507082 -0.41367674 4.8624859 5.5317798e-40
-0.78533632 -0.41367674 4.8624859 5.5353952e-40
-0.76707977 -0.41447535 4.8718729 6.4573515e-40
-0.73269105 -0.40636888 4.776587 8.2940614e-40
-0.72149885 -0.41103682 4.8314557 1.1978285e-39
-0.70594478 -0.41341123 4.859365 1.1981873e-39
-0.68843228 -0.41474223 4.87501 1.0156135e-39
-0.2633788 -0.20604436 2.42191 9.2415353e-40
-0.25105968 -0.20402113 2.3981283 8.3231944e-40
-0.2525253 -0.21348846 2.5094104 8.3231944e-40
-0.25107902 -0.22118635 2.5998938 9.2415494e-40
-0.24219069 -0.222716 2.6178737 9.2415494e-40
-0.23605527 -0.22703372 2.6686256 9.2451367e-40
-0.22690418 -0.2287268 2.6885266 9.2451367e-40
-0.21215051 -0.22465807 2.6407013 1.0163492e-39
-0.20508127 -0.2287268 2.6885266 9.2451367e-40
-0.22887492 -0.2696085 3.1690626 9.2451647e-40
-0.22915432 -0.28601006 3.3618519 9.2451647e-40
-0.22458532 -0.29805398 3.5034201 1.016352e-39
-0.20901252 -0.29613549 3.4808693 1.016352e-39
-0.19136594 -0.29078767 3.4180093 9.248752e-40
-0.17862286 -0.29263729 3.4397504 9.2451647e-40
-0.16317977 -0.29000211 3.4087756 9.248752e-40
-0.14874242 -0.28883168 3.3950183 1.0167107e-39
-0.027606299 -0.15248454 1.792351 9.2487801e-40
-0.021643739 -0.16232225 1.9079866 9.2451927e-40
-0.014858754 -0.17351688 2.0395718 1.0167149e-39
-0.0070706345 -0.18642393 2.1912854 1.0163548e-39
0.0019686196 -0.20134251 2.366643 1.0167149e-39
0.012580452 -0.2188565 2.5725079 1.0167149e-39
0.025214339 -0.23970774 2.8175998 9.2451787e-40
0.040509082 -0.26495051 3.1143112 9.2451927e-40
0.059404247 -0.29613549 3.4808693 1.1089105e-39
0.083297342 -0.33546597 3.9431722 1.0167149e-39
0.096829638 -0.32711765 3.8450437 1.0167149e-39
0.10937954 -0.3182286 3.7405586 1.0170736e-39
0.12771574 -0.32628909 3.8353043 1.1089119e-39
0.13905482 -0.31666404 3.7221684 1.0167135e-39
0.15385877 -0.31604254 3.7148631 1.1089091e-39
0.16802871 -0.31434587 3.6949198 1.200016e-39
0.18222424 -0.31297117 3.6787612 1.3829415e-39
0.19705884 -0.31281918 3.6769745 1.566995e-39
0.21229124 -0.31327564 3.6823399 1.7550226e-39
0.22767907 -0.31388628 3.689518 1.3876863e-39
0.2412423 -0.31206137 3.6680672 1.388045e-39
0.25440365 -0.30995893 3.6433547 1.4798833e-39
0.27088496 -0.31191024 3.666291 1.4798805e-39
0.27472258 -0.29985785 3.5246232 1.3880436e-39
0.7125839 -0.34572983 4.063817 1.2954864e-39
0.71300286 -0.33810744 3.974221 1.2954864e-39
0.83573836 -0.38754192 4.5552893 1.295485e-39
0.84156716 -0.38179886 4.4877834 1.5717132e-39
0.92009187 -0.37666357 4.4274216 1.3873247e-39
0.95880675 -0.38499382 4.5253382 1.2954878e-39
0.94607085 -0.37273997 4.3813024 1.3873247e-39
0.92120409 -0.35624707 4.1874394 1.4791644e-39
0.9465757 -0.35942784 4.2248273 1.3873247e-39
0.93451858 -0.34853607 4.0968022 1.2954878e-39
0.94045854 -0.34461996 4.0507708 1.3873233e-39
0.94928008 -0.34187615 4.0185194 1.4791602e-39
0.97281837 -0.34443566 4.0486045 1.571346e-39
0.98713821 -0.34370047 4.0399632 1.1085448e-39
0.98461968 -0.33722234 3.9638171 8.3013201e-40
0.9975732 -0.33616632 3.9514043 6.4537642e-40
1.0093955 -0.33476853 3.9349744 1.2907444e-39
1.0200639 -0.33303759 3.914628 1.6588095e-39
1.0295633 -0.33098391 3.8904886 1.3825813e-39
1.0389463 -0.32895541 3.8666449 1.1985502e-39
1.0487474 -0.32711765 3.8450437 8.2976768e-40
1.0616566 -0.32628909 3.8353043 6.4501628e-40
1.0669528 -0.32317847 3.7987409 6.4501488e-40
1.0785818 -0.32204735 3.7854455 9.2124444e-40
1.0740747 -0.31619769 3.7166867 1.1059972e-39
1.0499843 -0.30482474 3.5830057 1.4744182e-39
1.0496236 -0.30055749 3.5328469 2.1197834e-39
1.0639619 -0.30055749 3.5328469 2.9488238e-39
1.0727934 -0.29902259 3.5148053 4.4217917e-39
1.079043 -0.29681784 3.4888897 7.7393896e-39
1.0852014 -0.29464534 3.4633534 8.1114106e-39
1.0902798 -0.29223895 3.4350684 7.8344705e-39
1.0952761 -0.2898716 3.4072416 7.4664083e-39
1.0992106 -0.28728577 3.376847 6.7295663e-39
1.089588 -0.28126407 3.3060658 5.6235789e-39
1.0977329 -0.27991948 3.290261 4.7012611e-39
1.0991445 -0.27691087 3.2548971 3.7785775e-39
1.1137911 -0.27726847 3.2591007 3.0402894e-39
1.1304246 -0.27810651 3.2689512 2.4871198e-39
1.1348715 -0.27596173 3.2437408 1.7506408e-39
1.1431385 -0.27478442 3.2299023 1.2900256e-39
1.1542774 -0.27431631 3.2243998 1.1978285e-39
1.2074758 -0.28374216 3.3351941 1.1056329e-39
1.2513304 -0.29078767 3.4180093 1.0134387e-39
1.2488518 -0.28702971 3.3738372 9.2124444e-40
1.1849226 -0.26938298 3.1664119 8.2940894e-40
1.2181525 -0.27396625 3.2202854 8.2941034e-40
1.1863128 -0.26397324 3.102824 8.2941034e-40
1.1034817 -0.24296291 2.8558621 8.2976768e-40
1.1096308 -0.24177729 2.8419259 1.0134373e-39
1.1099157 -0.23935142 2.8134117 1.0141575e-39
1.1008792 -0.23498529 2.7620907 8.2940754e-40
1.0752157 -0.22719389 2.6705081 6.4501488e-40
1.0933818 -0.2287268 2.6885266 6.4537361e-40
1.1125903 -0.23044533 2.7087266 1.1052714e-39
1.0980477 -0.22520792 2.6471646 1.3818568e-39
1.1107332 -0.22560234 2.6518006 1.4736937e-39
1.1737059 -0.23610508 2.7752533 1.4736937e-39
1.2281902 -0.24471682 2.8764782 1.4736951e-39
1.311625 -0.2588805 3.0429626 1.4736951e-39
1.3645608 -0.26681635 3.1362431 1.4736937e-39
1.4842752 -0.28754225 3.3798621 1.3818583e-39
1.54276 -0.29613549 3.4808693 1.5655292e-39
1.5611939 -0.29695466 3.4904983 1.4736951e-39
1.600448 -0.30168369 3.5460846 1.4736951e-39
1.6720092 -0.31236404 3.6716249 1.4736951e-39
1.676342 -0.31040707 3.648622 1.4740553e-39
1.6646757 -0.30554777 3.5915041 1.3814981e-39
1.6792519 -0.30554777 3.5915041 1.4736923e-39
1.7084161 -0.30817926 3.6224358 1.3814981e-39
1.7448238 -0.31206137 3.6680672 1.3814981e-39
1.7936015 -0.31807145 3.7387116 1.3814981e-39
1.1981583 -0.21069503 2.4765754 1.3814967e-39
1.2078143 -0.21062613 2.4757655 1.3814967e-39
1.2218579 -0.21131715 2.4838881 1.2893011e-39
1.2533209 -0.21498488 2.5269995 1.2896598e-39
1.2832801 -0.21833718 2.5664036 1.3814953e-39
1.3056459 -0.22035398 2.5901098 1.3814953e-39
1.3376667 -0.22395504 2.6324377 1.2893039e-39
1.3969222 -0.23202258 2.7272661 1.2893039e-39
1.4465518 -0.238377 2.8019581 1.1971097e-39
1.4590036 -0.23855358 2.8040335 1.1971069e-39
1.4774977 -0.23970774 2.8175998 1.1971055e-39
1.4989744 -0.24132435 2.836602 1.1971069e-39
1.5475968 -0.24725324 2.906292 1.1971055e-39
1.6274905 -0.25805074 3.0332096 1.1052714e-39
1.6352149 -0.25732908 3.0247266 1.1971055e-39
1.6893362 -0.26386508 3.101553 1.0134331e-39
1.6108555 -0.24974591 2.9355917 1.0130743e-39
1.895481 -0.28138694 3.3075101 9.208801e-40
2.0916624 -0.30832681 3.6241698 9.2123883e-40
2.5259526 -0.36974436 4.3460913 8.2904461e-40
-1.5535674 -0.20296758 2.5052583 9.4021284e-39
-1.54801 -0.20357385 2.5127418 9.862389e-39
-1.5281752 -0.20229816 2.4969957 9.862389e-39
-1.5135484 -0.20169945 2.4896057 1.0046419e-38
-1.4945977 -0.20051259 2.474956 1.0230813e-38
-1.4821304 -0.20018539 2.4709175 1.0322653e-38
-1.4817742 -0.20150067 2.4871521 1.0138258e-38
-1.4917729 -0.20425175 2.5211091 1.0599593e-38
-1.4850025 -0.20472898 2.5269995 1.0876541e-38
-1.4767182 -0.20500268 2.5303779 1.0784705e-38
-1.4461484 -0.20216481 2.4953496 1.0969457e-38
-1.442678 -0.20310199 2.5069175 1.1245685e-38
-1.4009588 -0.19862954 2.4517133 1.1430073e-38
-1.4650185 -0.20919782 2.5821593 1.1982527e-38
-1.4491022 -0.20841591 2.5725079 1.2350952e-38
-1.4251029 -0.20645171 2.5482635 1.281193e-38
-1.4138091 -0.20631282 2.5465493 1.3273269e-38
-1.399238 -0.20569015 2.5388634 1.3734605e-38
-1.3898661 -0.20582819 2.5405674 1.447181e-38
-1.3814094 -0.20610484 2.543982 1.4933151e-38
-1.355147 -0.20370908 2.5144107 1.5578521e-38
-1.333428 -0.20196511 2.4928846 1.640828e-38
-1.3176702 -0.20110427 2.4822593 1.6869616e-38
-1.3153588 -0.20229816 2.4969957 1.6593748e-38
-1.298373 -0.20123623 2.4838881 1.6410433e-38
-1.2840792 -0.20057817 2.4757655 1.4750192e-38
-1.2740313 -0.20057817 2.4757655 1.6408275e-38
-1.2594529 -0.19985925 2.4668918 1.6685589e-38
-1.2502557 -0.19998957 2.4685004 1.6593396e-38
-1.2346016 -0.19908082 2.4572835 1.7606821e-38
-1.2186954 -0.19811629 2.4453781 1.815999e-38
-1.2103345 -0.19837259 2.4485416 1.815963e-38
-1.2089993 -0.19979414 2.4660883 1.8067792e-38
-1.2013385 -0.20018539 2.4709175 1.7975596e-38
-1.1770959 -0.19779685 2.4414353 1.815963e-38
-1.172101 -0.19862954 2.4517133 1.8160347e-38
-1.1659263 -0.19927487 2.4596786 1.8068871e-38
-1.149223 -0.19811629 2.4453781 1.8252907e-38
-1.1610494 -0.20189862 2.492064 1.8528775e-38
-1.0058768 -0.19921014 2.4588797 1.9542211e-38
-1.002081 -0.20044707 2.4741473 1.9173785e-38
-0.98816448 -0.19966407 2.4644828 1.945001e-38
-0.98071629 -0.20018539 2.4709175 1.9450733e-38
-0.96533203 -0.19908082 2.4572835 1.9358895e-38
-0.94614637 -0.19716105 2.4335876 1.9450372e-38
-0.94600022 -0.19921014 2.4588797 1.9358536e-38
-0.95147181 -0.20249853 2.4994688 1.9727676e-38
-0.93118268 -0.20031615 2.4725313 1.9819156e-38
-0.91814935 -0.19966407 2.4644828 1.9911714e-38
-0.91529793 -0.20123623 2.4838881 1.991207e-38
-0.82834888 -0.20466067 2.5261564 2.0649276e-38
-0.81891614 -0.20486574 2.5286877 2.0557441e-38
-0.81190753 -0.20569015 2.5388634 2.074111e-38
-0.79256684 -0.20337136 2.5102422 2.0925144e-38
-0.78445971 -0.20391224 2.5169184 2.0833309e-38
-0.77295995 -0.20357385 2.5127418 2.0833303e-38
-0.7609939 -0.20310199 2.5069175 2.0467402e-38
-0.7508195 -0.20310199 2.5069175 1.263834e-38
-0.74064511 -0.20310199 2.5069175 1.383289e-39
-0.72974581 -0.20290044 2.5044296 1.2907444e-39
-0.71791911 -0.20243169 2.4986439 1.1063546e-39
-0.70918262 -0.20283334 2.5036016 8.2976627e-40
-0.69465715 -0.20156687 2.4879694 8.2976627e-40
-0.66916639 -0.19703437 2.432024 5.5317798e-40
-0.67735589 -0.20243169 2.4986439 6.4537361e-40
-0.64425164 -0.19546464 2.4126484 5.5317518e-40
-0.6258834 -0.1928224 2.3800349 4.6097955e-40
-0.68133765 -0.21319708 2.6315227 3.6878532e-40
-0.72975856 -0.23198488 2.8634231 2.7623096e-40
-0.79180777 -0.25578317 3.1571689 3.6878532e-40
-0.87331855 -0.28675458 3.5394533 4.6098095e-40
-0.96853018 -0.3233358 3.9909809 4.6097955e-40
-1.0394564 -0.352916 4.3560939 4.6062082e-40
-0.99098682 -0.34228125 4.2248273 4.6098095e-40
-0.98206067 -0.34517053 4.2604899 1.8439406e-40
-0.95085698 -0.34019303 4.1990519 2.7658969e-40
-0.94270349 -0.34343114 4.2390208 2.7658969e-40
-0.93863815 -0.34830666 4.2991996 2.7694842e-40
-0.92486608 -0.3496967 4.3163571 3.6878532e-40
-0.90786564 -0.34989619 4.3188195 4.6062222e-40
-0.90426528 -0.35536966 4.3863792 3.6842659e-40
-0.88749141 -0.35578191 4.391468 4.6062082e-40
-0.86966854 -0.35578191 4.391468 2.7658969e-40
-0.86032915 -0.35932514 4.4352026 3.6878532e-40
-0.85535705 -0.36488283 4.5038018 3.6842519e-40
-0.84309679 -0.3675063 4.5361838 2.7658829e-40
-0.86240721 -0.38431582 4.7436657 2.7658969e-40
-0.85007912 -0.38747191 4.7826219 2.7658969e-40
-0.83968621 -0.39167818 4.8345408 4.6062222e-40
-0.83067393 -0.39674518 4.8970833 6.4537361e-40
-0.80352259 -0.39318463 4.8531351 5.5317798e-40
-0.78634638 -0.39444888 4.8687401 6.4537642e-40
-0.76609379 -0.39419538 4.8656111 5.5318079e-40
-0.73408049 -0.38771683 4.785645 4.6098235e-40
-0.72380835 -0.39268118 4.846921 1.1056287e-39
-0.70913088 -0.39546618 4.8812966 1.1978285e-39
-0.69244516 -0.39725909 4.9034266 9.2341785e-40
-0.26584503 -0.19805232 2.4445887 7.4012241e-40
-0.24052729 -0.21063462 2.5998938 1.016352e-39
-0.23968819 -0.21953043 2.7096961 8.3231664e-40
-0.2377976 -0.22827244 2.8175998 9.2451227e-40
-0.2184754 -0.22031897 2.7194293 9.2415353e-40
-0.2108466 -0.22393867 2.7641077 9.2451227e-40
-0.22492069 -0.25231099 3.1143112 9.2451507e-40
-0.22091419 -0.26257193 3.2409635 1.0167093e-39
-0.22120734 -0.27956611 3.4507251 9.248724e-40
-0.20720248 -0.27956611 3.4507251 9.248738e-40
-0.190164 -0.27517632 3.3965414 9.2451367e-40
-0.17773458 -0.27729115 3.4226451 9.2451507e-40
-0.1625212 -0.27505293 3.3950183 9.2487801e-40
-0.14748582 -0.27272922 3.3663366 9.2451787e-40
-0.027606299 -0.14521024 1.792351 1.1089091e-39
-0.021643739 -0.15457864 1.9079866 1.0167135e-39
-0.014858754 -0.16523923 2.0395718 1.0167149e-39
-0.0070706345 -0.17753054 2.1912854 1.1089105e-39
0.0019686196 -0.19173743 2.366643 9.2451927e-40
0.012580452 -0.20841591 2.5725079 1.0167135e-39
0.025214339 -0.22827244 2.8175998 1.0167135e-39
0.040509082 -0.25231099 3.1143112 9.248766e-40
0.059404247 -0.28200829 3.4808693 1.1085504e-39
0.083297342 -0.31946251 3.9431722 1.1089091e-39
0.09692809 -0.31182918 3.848953 1.017075e-39
0.10927157 -0.30274829 3.7368662 1.0170736e-39
0.12739305 -0.30993837 3.8256145 9.2487801e-40
0.13878191 -0.30096567 3.7148631 9.2523674e-40
0.15348221 -0.30022907 3.7057712 1.0170722e-39
0.16729389 -0.29804084 3.6787612 1.29185e-39
0.18160653 -0.29703051 3.666291 1.3829415e-39
0.19658147 -0.29717442 3.6680672 1.4755182e-39
0.21187903 -0.29775146 3.6751897 1.5709887e-39
0.22712564 -0.29818571 3.6805496 1.3876848e-39
0.24065931 -0.29645628 3.6592028 1.2958466e-39
0.25391486 -0.2946052 3.6363549 1.3880436e-39
0.27023065 -0.29631305 3.6574352 1.3876863e-39
0.27421194 -0.28502232 3.5180719 1.3876877e-39
0.71914619 -0.33226871 4.1012411 1.3873247e-39
0.71487921 -0.32282528 3.9846795 1.4795175e-39
0.83927321 -0.37061512 4.5745564 1.4791616e-39
0.95658886 -0.35890463 4.4300122 1.2951305e-39
0.93359697 -0.34381616 4.243773 1.3873247e-39
0.95242208 -0.34439531 4.2509212 1.387682e-39
0.9390921 -0.33353347 4.1168518 1.4795203e-39
0.9470458 -0.33047846 4.0791435 1.3873233e-39
0.95638698 -0.3280043 4.0486045 1.4795189e-39
0.98280406 -0.33137116 4.0901623 1.4795161e-39
1.0031979 -0.33262908 4.105689 1.476977e-39
0.99451274 -0.32436171 4.003644 4.613537e-40
1.0326041 -0.33137116 4.0901623 7.3793218e-40
1.0104458 -0.31913009 3.939069 1.1985488e-39
1.045471 -0.32504931 4.0121307 1.290027e-39
1.0595083 -0.32436171 4.003644 1.1981915e-39
1.0661724 -0.32147172 3.967972 1.1059944e-39
1.0783204 -0.32029662 3.9534678 8.2976768e-40
1.0920845 -0.31962898 3.9452271 7.3721191e-40
1.1017808 -0.31780726 3.9227414 1.3822198e-39
1.1102232 -0.31568092 3.8964956 2.8577114e-39
1.1151326 -0.31262386 3.8587618 3.8722305e-39
1.0754323 -0.29731849 3.6698453 4.4264832e-39
1.0731601 -0.29263741 3.6120663 4.9789326e-39
1.0604978 -0.28528744 3.5213447 5.3462703e-39
1.0823405 -0.28729182 3.5460846 5.896919e-39
1.0745863 -0.28149059 3.4744794 6.5412094e-39
1.0832193 -0.28007671 3.4570277 5.6221342e-39
1.0883048 -0.2777935 3.4288454 4.1462838e-39
1.0923265 -0.27529982 3.3980658 3.2243219e-39
1.0962768 -0.27285054 3.3678341 2.3027299e-39
1.0829673 -0.26621875 3.2859769 1.5662495e-39
1.0887429 -0.26438278 3.263315 1.198546e-39
1.090704 -0.26167578 3.2299023 1.1059916e-39
1.0986568 -0.26045352 3.2148156 1.0134373e-39
1.1079404 -0.25957173 3.2039318 9.2124304e-40
1.1124696 -0.25760943 3.1797106 8.2904881e-40
1.1206678 -0.25653201 3.1664119 8.2940894e-40
1.1302099 -0.25578317 3.1571689 8.2941034e-40
1.1463697 -0.25653201 3.1664119 7.3757345e-40
1.1611632 -0.25696188 3.1717179 9.2160597e-40
1.1681631 -0.25567654 3.1558528 9.2160597e-40
1.1668657 -0.25262275 3.1181593 1.1059958e-39
1.1713197 -0.25086626 3.0964789 1.0141589e-39
1.1853412 -0.25117445 3.1002829 6.4573515e-40
1.1809971 -0.24762537 3.0564759 6.4501628e-40
1.1819499 -0.24524911 3.0271454 8.2940614e-40
1.1833531 -0.24301428 2.9995606 1.0145191e-39
1.1601346 -0.23582008 2.9107616 1.1056371e-39
1.1386763 -0.22912514 2.828125 9.2124304e-40
1.1458739 -0.22827244 2.8175998 9.2160177e-40
1.1483345 -0.22650222 2.7957499 1.013796e-39
1.1453015 -0.22369367 2.7610834 1.1056315e-39
1.1718932 -0.22666962 2.7978163 1.2893025e-39
1.1871969 -0.22742604 2.8071527 1.2893025e-39
1.2161763 -0.23076299 2.8483412 1.1974684e-39
1.2464947 -0.23428878 2.8918605 1.197467e-39
1.2757745 -0.2375554 2.9321809 1.1056315e-39
1.3395554 -0.24712652 3.0503187 1.197467e-39
1.3718328 -0.25076371 3.0952129 1.1974656e-39
1.4039096 -0.25429851 3.1388435 1.1974656e-39
1.5132668 -0.27164218 3.3529189 1.1974684e-39
1.5793326 -0.28097481 3.4681129 1.1056329e-39
1.5941383 -0.28110358 3.4697025 1.1056329e-39
1.6268597 -0.28436163 3.509917 1.1052728e-39
1.6495168 -0.2858192 3.5279081 1.1052742e-39
1.6786976 -0.28837237 3.559422 1.1052728e-39
1.7406073 -0.29645628 3.6592028 1.1052728e-39
1.820573 -0.30745265 3.7949326 1.1971069e-39
1.86876 -0.31294286 3.8626993 1.1971069e-39
1.1600177 -0.19264071 2.3777924 1.104914e-39
1.162004 -0.19137847 2.3622124 1.104914e-39
1.1715912 -0.19137847 2.3622124 1.1052714e-39
1.2121922 -0.19640346 2.4242365 1.1056301e-39
1.3078831 -0.21020152 2.594548 1.1056301e-39
1.4238081 -0.22700518 2.8019581 1.1052714e-39
1.4551055 -0.23015685 2.8408597 1.1052728e-39
1.4872842 -0.23339728 2.8808565 1.0130771e-39
1.493294 -0.23251252 2.8699358 1.0130757e-39
1.5257634 -0.23572944 2.9096429 1.1049112e-39
1.578833 -0.24205525 2.9877234 1.1049126e-39
1.5822172 -0.24072528 2.9713073 1.0130771e-39
1.5781726 -0.23829372 2.941294 1.0134359e-39
1.5857973 -0.23764743 2.9333169 1.0134345e-39
1.6442063 -0.24456461 3.0186965 1.0134331e-39
1.5724437 -0.23216049 2.8655908 1.0130757e-39
1.9447584 -0.27492964 3.3934965 9.208801e-40
2.2202656 -0.31167075 3.8469973 8.2904461e-40
2.5672166 -0.35785764 4.417089 8.2904461e-40
-1.5571743 -0.19324756 2.5110748 9.4939624e-39
-1.5516148 -0.19382614 2.5185931 9.6787138e-39
-1.5286795 -0.19222744 2.4978194 9.7705535e-39
-1.5155419 -0.19184767 2.4928846 1.0230811e-38
-1.4970446 -0.19077976 2.4790082 1.0322647e-38
-1.4860103 -0.1906549 2.4773858 1.0323369e-38
-1.4730636 -0.1902813 2.4725313 1.0507758e-38
-1.4819034 -0.19273615 2.5044296 1.0599955e-38
-1.4697944 -0.19248146 2.5011201 1.0692869e-38
-1.4625425 -0.19286375 2.5060875 1.0969454e-38
-1.4282598 -0.18966191 2.4644828 1.1245322e-38
-1.4214967 -0.19009507 2.4701111 1.1521192e-38
-1.374257 -0.18508303 2.4049845 1.1981811e-38
-1.4595428 -0.19797532 2.5725079 1.2350233e-38
-1.43835 -0.19650637 2.5534201 1.2903767e-38
-1.4151006 -0.19473308 2.5303779 1.3088517e-38
-1.4038925 -0.194603 2.5286877 1.3825721e-38
-1.3973635 -0.19512437 2.5354624 1.4471812e-38
-1.3917342 -0.19578002 2.543982 1.4933149e-38
-1.3865343 -0.19650637 2.5534201 1.5394127e-38
-1.3583049 -0.19395518 2.5202699 1.6132411e-38
-1.3365085 -0.19229089 2.4986439 1.6685226e-38
-1.3211355 -0.19153234 2.4887872 1.6869616e-38
-1.3157927 -0.19222744 2.4978194 1.6869976e-38
-1.3005064 -0.1914694 2.4879694 1.6869976e-38
-1.28324 -0.19040568 2.4741473 1.7053648e-38
-1.2727827 -0.19034347 2.4733391 1.6593033e-38
-1.2590427 -0.18978547 2.4660883 1.6593755e-38
-1.249034 -0.18978547 2.4660883 1.6501197e-38
-1.2326013 -0.18880148 2.4533021 1.7238037e-38
-1.2147717 -0.18758576 2.437505 1.7883403e-38
-1.2076006 -0.18800947 2.4430108 1.7883761e-38
-1.205074 -0.18916927 2.4580815 1.7975953e-38
-1.1939348 -0.1889852 2.4556894 1.7975952e-38
-1.1755795 -0.18764618 2.4382901 1.8435857e-38
-1.1660593 -0.18770662 2.4390757 1.8344021e-38
-1.1625271 -0.18874031 2.4525075 1.8253259e-38
-1.151082 -0.18849607 2.4493339 1.8252902e-38
-1.1545885 -0.19071731 2.4781966 1.8436215e-38
-1.0058768 -0.18923071 2.4588797 1.9081953e-38
-1.0043787 -0.19084224 2.47982 1.9081955e-38
-0.98591793 -0.18923071 2.4588797 1.8898281e-38
-0.94190764 -0.18644524 2.4226851 1.9358533e-38
-0.95053035 -0.19216403 2.4969957 1.954329e-38
-0.93179131 -0.19040568 2.4741473 1.9727321e-38
-0.91710323 -0.19153234 2.4887872 2.0003191e-38
-0.85052055 -0.19717136 2.5620611 2.0648913e-38
-0.82696921 -0.19408441 2.5219491 2.0465241e-38
-0.81891614 -0.194603 2.5286877 2.0464885e-38
-0.81027716 -0.19499376 2.5337653 2.083259e-38
-0.79177922 -0.19299151 2.5077479 2.0556723e-38
-0.78419906 -0.19363289 2.516082 2.0557439e-38
-0.77270347 -0.19331166 2.5119081 2.0926216e-38
-0.7609939 -0.1929276 2.5069175 2.102058e-38
-0.7508195 -0.1929276 2.5069175 1.1810027e-38
-0.74064511 -0.1929276 2.5069175 1.0152281e-39
-0.72950453 -0.19267242 2.5036016 1.3832988e-39
-0.71791911 -0.19229089 2.4986439 1.6598913e-39
-0.70941722 -0.19273615 2.5044296 1.4754986e-39
-0.69511402 -0.19159532 2.4896057 1.3833044e-39
-0.67284077 -0.18819165 2.4453781 8.2976908e-40
-0.68230993 -0.19369726 2.5169184 5.5353672e-40
-0.64693171 -0.18644524 2.4226851 5.5317518e-40
-0.63669175 -0.18632598 2.4211354 5.5281645e-40
-0.68948591 -0.20493893 2.6629937 4.6062082e-40
-0.74068397 -0.22366272 2.906292 2.7659109e-40
-0.84351623 -0.25883669 3.3633456 3.6878672e-40
-0.94249666 -0.29396638 3.8198237 3.6878672e-40
-0.97573113 -0.30942187 4.0206537 3.6914546e-40
-0.97917348 -0.31579477 4.1034636 3.6878532e-40
-0.95991808 -0.31494129 4.0923734 2.7658829e-40
-0.94432998 -0.31528214 4.0968022 1.847542e-40
-0.92820525 -0.31545281 4.0990205 3.6878672e-40
-0.91753048 -0.31751573 4.1258259 4.6134249e-40
-0.89833796 -0.31665292 4.1146145 5.5282065e-40
-0.87498122 -0.31426179 4.0835443 4.6098375e-40
-0.86540973 -0.31682509 4.1168518 4.6098235e-40
-0.8547436 -0.31908071 4.1461616 4.6098095e-40
-0.86785889 -0.3304829 4.2943225 5.5317518e-40
-0.86415476 -0.33581635 4.363626 5.5281785e-40
-0.85731572 -0.34012923 4.4196677 6.4501348e-40
-0.85029876 -0.34455433 4.4771676 5.5317658e-40
-0.83857483 -0.3472237 4.5118537 5.5317658e-40
-0.85226125 -0.36076865 4.6878581 4.6062362e-40
-0.84315491 -0.36506352 4.7436657 4.6062082e-40
-0.83382916 -0.36946186 4.8008184 5.5281645e-40
-0.83013701 -0.37662661 4.8939176 6.4501208e-40
-0.8014676 -0.37253284 4.840723 5.5317658e-40
-0.78483224 -0.3739675 4.859365 6.4537501e-40
-0.76609379 -0.37444818 4.8656111 1.1989089e-39
-0.72946942 -0.36598074 4.7555847 9.2196331e-40
-0.71556246 -0.36876035 4.7917032 1.1056329e-39
-0.70413703 -0.37300983 4.846921 1.1981901e-39
-0.69379324 -0.37809303 4.9129725 1.0156135e-39
-0.27181318 -0.19235437 2.4994688 8.3231664e-40
-0.25177747 -0.18508303 2.4049845 9.2451227e-40
-0.25012106 -0.19128081 2.4855189 8.3231664e-40
-0.24567948 -0.19578002 2.543982 8.3231804e-40
-0.2379937 -0.19797532 2.5725079 1.0163506e-39
-0.23781563 -0.20690389 2.6885266 8.3231664e-40
-0.23770913 -0.21675646 2.8165517 9.2451367e-40
-0.2568562 -0.24604787 3.1971667 9.2451367e-40
-0.26539928 -0.26775798 3.4792697 8.3267677e-40
-0.22887492 -0.24388504 3.1690626 9.2451647e-40
-0.22713712 -0.25644428 3.3322582 1.0163506e-39
-0.22313972 -0.2678811 3.4808693 1.0163478e-39
-0.20758092 -0.26604629 3.4570277 1.0163506e-39
-0.19084898 -0.26233289 3.4087756 1.1085476e-39
-0.17773458 -0.26340026 3.4226451 9.2451507e-40
-0.16150725 -0.25964409 3.3738372 9.2451647e-40
-0.14689796 -0.25803426 3.3529189 1.0167121e-39
-0.13281949 -0.25712329 3.3410816 1.0163492e-39
-0.027612837 -0.1379686 1.7927755 9.2451647e-40
-0.021492081 -0.14580615 1.8946173 9.2451647e-40
-0.022348339 -0.23607835 3.0676219 1.0167121e-39
-0.0070706345 -0.16863716 2.1912854 9.2451787e-40
0.0019686196 -0.18213235 2.366643 9.2451787e-40
0.012576179 -0.19790807 2.5716341 9.248766e-40
0.025702173 -0.22103238 2.8721132 1.0167121e-39
0.040178534 -0.23771578 3.0888987 1.0167135e-39
0.059404247 -0.2678811 3.4808693 1.0167149e-39
0.083297342 -0.30345905 3.9431722 1.0170736e-39
0.096682325 -0.29545709 3.8391941 1.1089091e-39
0.10916381 -0.2872985 3.7331808 1.0167149e-39
0.12713608 -0.29381815 3.8178976 1.0170708e-39
0.13878191 -0.28588879 3.7148631 1.0170722e-39
0.15348221 -0.28518912 3.7057712 1.0170736e-39
0.16745663 -0.28338587 3.6823399 1.2000132e-39
0.18187074 -0.28256127 3.6716249 1.2907458e-39
0.19696318 -0.2828356 3.6751897 1.475877e-39
0.21239455 -0.28352377 3.6841319 1.6635417e-39
0.22767907 -0.28393829 3.689518 1.3880422e-39
0.2412423 -0.28228748 3.6680672 1.4798777e-39
0.25514033 -0.28119758 3.6539049 1.4798805e-39
0.27167431 -0.28297299 3.6769745 1.3876863e-39
0.27587849 -0.27238962 3.5394533 1.3884065e-39
0.72583044 -0.31855732 4.1393609 1.387682e-39
0.7156325 -0.3069765 3.9888783 1.3876848e-39
0.83978063 -0.35226202 4.577322 1.3873275e-39
0.91580737 -0.33913934 4.406805 1.3873247e-39
1.0443254 -0.37932381 4.9289656 1.3873247e-39
0.92466652 -0.3295483 4.2821779 1.5713572e-39
0.933074 -0.32640973 4.2413955 1.3873219e-39
0.94341695 -0.32404971 4.2107291 1.4795189e-39
0.93603814 -0.31579477 4.1034636 1.4795217e-39
0.94247562 -0.31240824 4.0594587 1.387682e-39
0.95689869 -0.31173962 4.0507708 1.4795189e-39
0.98546606 -0.3156237 4.1012411 1.479156e-39
1.0108727 -0.31838325 4.1370988 1.1092763e-39
0.99293751 -0.30762479 3.9973025 6.471911e-40
1.0707844 -0.32640973 4.2413955 1.0145233e-39
1.085336 -0.3156237 4.1012411 1.1059958e-39
1.084937 -0.31074205 4.0378084 1.0138016e-39
1.0966456 -0.30942187 4.0206537 1.0145233e-39
1.1117826 -0.30909356 4.0163875 1.936481e-39
1.1227227 -0.30762479 3.9973025 3.2264967e-39
1.1341554 -0.30633089 3.9804893 5.1626007e-39
1.1454922 -0.30504784 3.9638171 5.3466333e-39
1.1591519 -0.30441034 3.9555333 4.7016282e-39
1.1269256 -0.29190448 3.7930315 4.1480957e-39
1.1906371 -0.30425137 3.9534678 3.5945562e-39
1.1104262 -0.27998143 3.6381023 4.0533637e-39
1.0736009 -0.26714414 3.4712934 3.8671718e-39
1.0832193 -0.26604629 3.4570277 1.1967467e-39
1.0878121 -0.26375797 3.4272933 9.208815e-40
1.0903689 -0.26104003 3.3919761 8.2868587e-40
1.0933585 -0.25849217 3.3588691 5.5281785e-40
1.0754986 -0.25113851 3.263315 5.5281785e-40
1.0794374 -0.24899204 3.2354233 5.5317798e-40
1.0851486 -0.24730109 3.2134511 6.4537501e-40
1.0944741 -0.24646419 3.2025764 7.3721191e-40
1.1028068 -0.24542601 3.1890862 7.3721471e-40
1.1092086 -0.24398717 3.1703899 8.2940754e-40
1.1173965 -0.24296971 3.1571689 7.3757205e-40
1.125984 -0.24206123 3.1453638 7.3757345e-40
1.1392227 -0.24216183 3.1466711 6.4573795e-40
1.1534318 -0.24246415 3.1505995 7.3757485e-40
1.161867 -0.24155945 3.1388435 7.3757485e-40
1.1635113 -0.23927777 3.1091955 7.3757345e-40
1.1722786 -0.23849422 3.0990138 6.4537501e-40
1.1848561 -0.23849422 3.0990138 5.5281925e-40
1.1930383 -0.23761883 3.0876391 4.6098235e-40
1.196784 -0.2358872 3.0651379 7.3685178e-40
1.2009583 -0.23427477 3.0441861 8.2940474e-40
1.201238 -0.23194322 3.0138896 9.2124024e-40
1.1810293 -0.22574249 2.9333169 8.2904601e-40
1.1738327 -0.22212785 2.886348 9.2124024e-40
1.1699359 -0.21920292 2.8483412 9.208801e-40
1.1726724 -0.21756586 2.827069 9.208801e-40
1.184146 -0.21756586 2.827069 1.0130757e-39
1.1965134 -0.21772847 2.8291819 1.0130743e-39
1.2157189 -0.21912049 2.84727 9.2124024e-40
1.2398645 -0.2213683 2.8764782 1.0134359e-39
1.2520144 -0.22145244 2.8775716 9.2124164e-40
1.3676579 -0.23967148 3.1143112 9.2124024e-40
1.4364312 -0.24941839 3.2409635 8.2940334e-40
1.5117097 -0.26010776 3.3798621 9.2159897e-40
1.5797302 -0.26936725 3.5001807 8.2940614e-40
1.6140839 -0.27277216 3.5444245 8.2940614e-40
1.617865 -0.27099597 3.5213447 9.2160037e-40
1.6521357 -0.27431327 3.5644495 8.2940614e-40
1.6479809 -0.27124831 3.5246232 8.2940614e-40
1.6700606 -0.272517 3.5411088 8.2940614e-40
1.682072 -0.27213517 3.5361471 8.2940474e-40
1.6807233 -0.26961654 3.5034201 9.2124024e-40
1.4454497 -0.22992951 2.9877234 9.208815e-40
1.4227644 -0.22443812 2.9163678 8.2904461e-40
1.3860153 -0.21683712 2.8175998 8.2868587e-40
1.3974506 -0.21683712 2.8175998 9.208801e-40
1.3866947 -0.21342175 2.7732201 9.2123883e-40
1.4358175 -0.21920292 2.8483412 8.2904461e-40
1.4865261 -0.2251319 2.9253829 9.208815e-40
1.5065486 -0.2263564 2.941294 9.208815e-40
1.5741373 -0.23465218 3.0490901 9.2124024e-40
1.5650812 -0.23148246 3.0079026 9.2123883e-40
1.5804285 -0.23194322 3.0138896 9.208801e-40
1.6263263 -0.23684609 3.0775979 9.208801e-40
1.6348295 -0.23626982 3.0701098 8.2904601e-40
1.659402 -0.2380071 3.092684 8.2904461e-40
1.6543827 -0.2355058 3.0601821 8.2904461e-40
1.6962852 -0.23967148 3.1143112 9.2123883e-40
1.9309106 -0.25929746 3.3693328 7.3685038e-40
2.1706324 -0.28943932 3.760999 7.3720911e-40
2.5158429 -0.33312827 4.3286967 6.4501348e-40
-1.5607982 -0.18348229 2.5169184 9.5857993e-39
-1.5567938 -0.1842172 2.5269995 9.9545791e-39
-1.5347557 -0.18281375 2.5077479 9.8623848e-39
-1.524578 -0.18281375 2.5077479 1.0138253e-38
-1.5179197 -0.18323861 2.513576 1.0507037e-38
-1.5198284 -0.18471041 2.5337653 1.023153e-38
-1.5070233 -0.18440184 2.5295324 9.8631079e-39
-1.5073332 -0.18570481 2.547406 1.0416283e-38
-1.4889784 -0.18471041 2.5337653 1.0968739e-38
-1.4782003 -0.18464862 2.5329177 1.1153485e-38
-1.4357376 -0.18060036 2.4773858 1.1337876e-38
-1.4280195 -0.18089633 2.4814458 1.1614107e-38
-1.3932885 -0.1777503 2.4382901 1.2166924e-38
-1.4181031 -0.18221021 2.4994688 1.262754e-38
-1.4163758 -0.18329947 2.5144107 1.3088877e-38
-1.4015163 -0.18269272 2.5060875 1.3550214e-38
-1.391806 -0.18275322 2.5069175 1.4287059e-38
-1.3862218 -0.18336037 2.5152462 1.5024627e-38
-1.387538 -0.18489605 2.5363119 1.5485965e-38
-1.3837342 -0.18576732 2.5482635 1.5947303e-38
-1.3592098 -0.18384901 2.5219491 1.6409719e-38
-1.3373914 -0.18227038 2.5002942 1.6778503e-38
-1.3224397 -0.18161063 2.4912441 1.6962177e-38
-1.3136257 -0.18179008 2.4937057 1.6869981e-38
-1.300934 -0.18143153 2.4887872 1.6502275e-38
-1.2811466 -0.18007006 2.4701111 1.6501559e-38
-1.2702926 -0.17995262 2.4685004 1.6777426e-38
-1.2582229 -0.17965974 2.4644828 1.6685231e-38
-1.249034 -0.17977677 2.4660883 1.6776704e-38
-1.2326013 -0.17884469 2.4533021 1.7144758e-38
-1.2167305 -0.17797959 2.4414353 1.8158908e-38
-1.2099432 -0.17843993 2.4477501 1.8344017e-38
-1.2062489 -0.1793678 2.4604781 1.8159267e-38
-1.1927742 -0.17884469 2.4533021 1.8159627e-38
-1.1793778 -0.17832462 2.4461682 1.8343661e-38
-1.166435 -0.17786488 2.4398618 1.8252544e-38
-1.1666844 -0.1794261 2.461278 1.806779e-38
-1.1563193 -0.1793678 2.4604781 1.852805e-38
-1.1545885 -0.18065947 2.4781966 1.8436215e-38
-1.1422873 -0.18030536 2.4733391 1.8436576e-38
-1.1506689 -0.18323861 2.513576 1.8436933e-38
-1.1266277 -0.18101498 2.4830735 1.8345456e-38
-1.0869608 -0.17621797 2.4172704 1.8528773e-38
-1.083952 -0.17896067 2.4548934 1.8529134e-38
-1.0715566 -0.17855538 2.4493339 1.8344744e-38
-1.0737745 -0.18060036 2.4773858 1.8435862e-38
-1.0124533 -0.18042324 2.474956 1.9081955e-38
-1.0100026 -0.18179008 2.4937057 1.8990481e-38
-0.94569308 -0.17919309 2.4580815 1.954257e-38
-0.95557296 -0.18299559 2.5102422 1.9726603e-38
-0.9327057 -0.18054129 2.4765754 1.9634764e-38
-0.92746943 -0.18348229 2.5169184 1.9911353e-38
-0.85052055 -0.18677317 2.5620611 2.074003e-38
-0.82614362 -0.18366545 2.5194311 2.0557074e-38
-0.81891614 -0.18434025 2.5286877 2.0465598e-38
-0.80865335 -0.18434025 2.5286877 2.0648557e-38
-0.79125506 -0.18269272 2.5060875 2.0464169e-38
-0.78393853 -0.18336037 2.5152462 2.0556721e-38
-0.77219105 -0.18299559 2.5102422 2.1016614e-38
-0.76049024 -0.18263227 2.5052583 2.0650718e-38
-0.75032258 -0.18263227 2.5052583 1.1348339e-38
-0.74015498 -0.18263227 2.5052583 8.3084247e-40
-0.72902232 -0.18239085 2.5019467 1.2907402e-39
-0.71744555 -0.18202992 2.4969957 1.7520841e-39
-0.70918262 -0.18251148 2.5036016 1.6598899e-39
-0.69420087 -0.18125278 2.4863353 1.4755e-39
-0.67677552 -0.17930952 2.4596786 1.0141617e-39
-0.68687695 -0.18471041 2.5337653 6.4537501e-40
-0.65026104 -0.17752162 2.435153 7.3757064e-40
-0.65642434 -0.1819699 2.4961724 7.3757205e-40
-0.69957471 -0.1969717 2.7019596 6.4573515e-40
-0.75963849 -0.21728925 2.9806657 6.4609949e-40
-0.87299085 -0.2537539 3.4808693 7.3829371e-40
-0.93823624 -0.27720478 3.802557 6.4609668e-40
-0.9680199 -0.29078752 3.9888783 7.3793218e-40
-0.97127694 -0.29672834 4.0703712 6.4609808e-40
-0.94560617 -0.29388431 4.0313582 6.4609668e-40
-0.93222314 -0.29482624 4.0442791 7.3793358e-40
-0.91629881 -0.2949838 4.0464406 7.3793218e-40
-0.90228748 -0.29577422 4.0572834 6.4573795e-40
-0.88439906 -0.29529947 4.0507708 6.4537922e-40
-0.8679589 -0.29529947 4.0507708 4.6134809e-40
-0.86400026 -0.29962796 4.110147 4.6134669e-40
-0.85334164 -0.30175763 4.1393609 4.6134669e-40
-0.84860522 -0.3061091 4.1990519 4.6134389e-40
-0.83110231 -0.30593941 4.1967244 4.6098375e-40
-0.8047024 -0.30241901 4.1484332 4.6098095e-40
-0.84035957 -0.32256851 4.4248338 6.4501208e-40
-0.83163625 -0.32619074 4.4745216 6.4537361e-40
-0.84545571 -0.33901396 4.6504245 7.3756784e-40
-0.841573 -0.34516242 4.734766 3.6878532e-40
-0.83330077 -0.34975582 4.7977762 4.6062082e-40
-0.82533544 -0.35470098 4.8656111 6.4501208e-40
-0.79536504 -0.3501997 4.8038645 6.4501348e-40
-0.77784264 -0.35109079 4.8160882 6.4537501e-40
-0.75112915 -0.34777233 4.7705674 1.1070734e-39
-0.71641904 -0.34047791 4.6705065 1.383303e-39
-0.70310241 -0.34323055 4.7082653 1.2900256e-39
-0.68956864 -0.34602803 4.7466402 1.1063518e-39
-0.48729962 -0.2515564 3.4507251 1.0152533e-39
-0.44037688 -0.23406053 3.2107255 8.319523e-40
-0.42843625 -0.23465762 3.2189162 8.319565e-40
-0.238002 -0.17965974 2.4644828 9.2415213e-40
-0.23590955 -0.18589246 2.5499802 9.2415213e-40
-0.23781563 -0.19599244 2.6885266 1.0163478e-39
-0.27732733 -0.23954631 3.2859769 9.2415213e-40
-0.26399112 -0.23954631 3.2859769 9.2415213e-40
-0.27074957 -0.25875044 3.5494096 9.248724e-40
-0.22887492 -0.23102333 3.1690626 9.2451367e-40
-0.22713712 -0.2429202 3.3322582 9.2415634e-40
-0.22313972 -0.2537539 3.4808693 1.0163506e-39
-0.20891647 -0.25363728 3.4792697 9.2415494e-40
-0.1917989 -0.24973516 3.4257424 9.2451647e-40
-0.17789544 -0.24973516 3.4257424 1.0167107e-39
-0.16107656 -0.24529542 3.3648403 9.2451647e-40
-0.14618582 -0.24324138 3.336664 1.0167135e-39
-0.13062888 -0.23954631 3.2859769 1.0167093e-39
-0.049264476 -0.23317055 3.1985173 1.0167135e-39
-0.021470588 -0.13797867 1.8927227 1.0167135e-39
