# .PCD v0.7 - Point Cloud Data file format
VERSION 0.7
FIELDS x y z rgb
SIZE 4 4 4 4
TYPE F F F F
COUNT 1 1 1 1
WIDTH 1021
HEIGHT 1
VIEWPOINT 0 0 0 1 0 0 0
POINTS 1021
DATA ascii
0.51228577 -0.22810812 1.1249466 3.5967296e-39
0.51554912 -0.22753339 1.1221122 3.2290261e-39
0.52149451 -0.22814202 1.1251138 3.5981687e-39
0.52684373 -0.22848158 1.1267884 3.5052542e-39
0.53062707 -0.22814202 1.1251138 3.4134173e-39
0.53726935 -0.22902696 1.129478 3.3212231e-39
0.53839952 -0.22756711 1.1222785 3.136113e-39
0.5400722 -0.22635914 1.1163212 3.3212231e-39
0.50007498 -0.2242088 1.1282997 3.7822026e-39
0.50211 -0.22307844 1.1226113 3.5974527e-39
0.50696683 -0.22321084 1.1232775 3.5974499e-39
0.51205748 -0.2234429 1.1244454 3.4130572e-39
0.51570195 -0.22304538 1.1224449 3.2286673e-39
0.52164954 -0.2236422 1.1254483 3.5056144e-39
0.52707905 -0.2240085 1.1272917 3.5974499e-39
0.53102165 -0.22374198 1.1259505 3.5970911e-39
0.53710908 -0.22437599 1.1291411 3.596731e-39
0.53903872 -0.22327709 1.123611 3.3201469e-39
0.54031122 -0.22192669 1.1168153 3.5048955e-39
0.50119537 -0.22012164 1.1308275 3.5978072e-39
0.50278097 -0.21881431 1.1241115 3.5056158e-39
0.50817317 -0.21917228 1.1259505 3.505257e-39
0.51335365 -0.21943335 1.1272917 3.2283058e-39
0.51708186 -0.21907453 1.1254483 3.0446334e-39
0.52336115 -0.21979335 1.1291411 3.4134187e-39
0.52920663 -0.22031909 1.1318419 3.4126971e-39
0.53308296 -0.22002305 1.1303211 3.2283072e-39
0.53871596 -0.22045092 1.1325192 3.2279471e-39
0.54298747 -0.22031909 1.1318419 2.951363e-39
0.54319584 -0.21855471 1.1227778 3.3201441e-39
0.50158936 -0.2137443 1.1214473 2.6751334e-39
0.50651592 -0.21390271 1.1222785 2.5825791e-39
0.51160157 -0.2141249 1.1234442 2.3063481e-39
0.51554912 -0.21387102 1.1221122 2.2145112e-39
0.5218823 -0.21460257 1.1259505 2.3989025e-39
0.52794379 -0.21521071 1.1291411 2.3981822e-39
0.53244704 -0.21517861 1.1289726 2.305988e-39
0.53968477 -0.21624273 1.1345558 2.2134308e-39
0.54600769 -0.2169254 1.1381375 2.1208764e-39
0.54684526 -0.21543561 1.1303211 2.3052691e-39
0.50196111 -0.20934792 1.1222785 1.8446483e-39
0.63206738 -0.26123956 1.4004607 1.7524498e-39
0.63928854 -0.26186928 1.4038366 1.6602542e-39
0.64331603 -0.26119125 1.4002017 1.6606158e-39
0.65044236 -0.26177222 1.4033161 1.6606129e-39
0.53151095 -0.21205121 1.1367704 1.6606129e-39
0.53580278 -0.21192393 1.136088 1.7524498e-39
0.54351288 -0.21313931 1.1426035 1.6602528e-39
0.54906166 -0.21349373 1.1445035 1.7520869e-39
0.55062681 -0.21230623 1.1381375 1.7520897e-39
0.62499624 -0.25498974 1.3973589 1.4755042e-39
0.63359106 -0.25617179 1.4038366 1.291113e-39
0.63869637 -0.25593451 1.4025363 1.3833086e-39
0.643435 -0.25555575 1.4004607 1.3833086e-39
0.65177125 -0.25659999 1.4061832 1.3833072e-39
0.53585577 -0.20913328 1.1460627 1.1989159e-39
0.5414086 -0.20948209 1.1479744 1.1992747e-39
0.5471462 -0.20989583 1.1502417 1.2911102e-39
0.55257004 -0.21018323 1.1518166 1.2911102e-39
0.55521744 -0.20941859 1.1476263 1.1989159e-39
0.50074661 -0.20158301 1.1298151 1.2911116e-39
0.61928123 -0.24703872 1.3845813 1.291113e-39
0.6285792 -0.24849297 1.3927319 1.291113e-39
0.63446504 -0.24858442 1.3932445 1.2911102e-39
0.64118153 -0.24899682 1.3955559 1.3833072e-39
0.64815968 -0.24950273 1.3983914 1.3829471e-39
0.53969556 -0.20594721 1.1542752 1.3829471e-39
0.54521143 -0.20626168 1.1560377 1.3829471e-39
0.55023932 -0.20638774 1.1567442 1.3825883e-39
0.55586821 -0.20673519 1.1586915 1.2907528e-39
0.55920148 -0.20623019 1.1558611 1.1989159e-39
0.50064397 -0.19877747 1.1400228 1.5676971e-39
0.50239605 -0.19764651 1.1335366 1.6595354e-39
0.50768065 -0.19791321 1.135066 1.6595368e-39
0.62719464 -0.24230564 1.3896643 1.5676999e-39
0.63341594 -0.24252822 1.3909408 1.5676999e-39
0.64023739 -0.24297462 1.3935009 1.5677013e-39
0.64875883 -0.24405271 1.399684 1.5676999e-39
0.54375774 -0.20277743 1.1629633 1.5676985e-39
0.54982901 -0.20327704 1.1658286 1.5673397e-39
0.55550152 -0.20362195 1.1678067 1.5673411e-39
0.56058699 -0.20374766 1.1685277 1.4755028e-39
0.56289685 -0.20287092 1.1634995 1.3833072e-39
0.56761891 -0.20287092 1.1634995 1.2911116e-39
0.57146281 -0.20255964 1.1617141 1.3833072e-39
0.57564765 -0.20237331 1.1606455 1.5684187e-39
0.52209753 -0.21435651 1.2586684 1.4758602e-39
0.52905291 -0.21510752 1.2630782 1.6598941e-39
0.50031132 -0.19583148 1.1498923 1.7520897e-39
0.50071937 -0.19417989 1.1401944 1.9361208e-39
0.59855568 -0.22999544 1.3504978 1.8442881e-39
0.60685122 -0.23106711 1.3567904 1.8442881e-39
0.61867762 -0.23345183 1.3707932 1.7524526e-39
0.62548679 -0.23391771 1.3735288 1.9364838e-39
0.63209337 -0.23430029 1.3757752 1.8442895e-39
0.5445587 -0.20008604 1.1748744 1.8446483e-39
0.54619086 -0.19894375 1.1681671 1.7528086e-39
0.55212456 -0.19937444 1.1706959 1.7524498e-39
0.55860347 -0.19999294 1.1743277 1.7524512e-39
0.56240988 -0.19965228 1.1723275 1.7517324e-39
0.5648064 -0.19882104 1.1674465 1.4751441e-39
0.56910574 -0.19866787 1.1665471 1.2911116e-39
0.57304555 -0.19839275 1.1649317 1.291829e-39
0.57715178 -0.19817929 1.1636783 1.6609731e-39
0.58160645 -0.19808795 1.163142 2.5832909e-39
0.58515841 -0.19769311 1.1608235 3.2290219e-39
0.5897792 -0.1976628 1.1606455 3.782197e-39
0.59531105 -0.19793589 1.1622491 3.6900042e-39
0.59892476 -0.19757193 1.160112 3.7818383e-39
0.50613439 -0.20485479 1.2322414 1.6598941e-39
0.52506548 -0.21043769 1.2658236 1.6602556e-39
0.53711772 -0.21318221 1.2823324 1.8446483e-39
0.5482654 -0.21551846 1.2963854 1.9364852e-39
0.54901433 -0.21376151 1.285817 1.8446511e-39
0.5931595 -0.22249033 1.3383225 2.0293997e-39
0.60403669 -0.22451441 1.3504978 2.1212366e-39
0.6164453 -0.22706617 1.3658471 2.0293997e-39
0.62401503 -0.22780594 1.370297 2.0293983e-39
0.63209337 -0.22871666 1.3757752 2.3052677e-39
0.54967678 -0.19715348 1.1859164 2.1212338e-39
0.54881597 -0.1951361 1.1737815 2.1215911e-39
0.55461162 -0.19549981 1.1759694 2.0290367e-39
0.56156498 -0.19626194 1.1805537 2.0293997e-39
0.56398183 -0.1954391 1.1756041 2.0283193e-39
0.56664133 -0.19471346 1.1712393 1.6591766e-39
0.57121813 -0.19465323 1.170877 1.2907514e-39
0.5753473 -0.19444273 1.1696109 1.2914703e-39
0.57902074 -0.19408293 1.1674465 1.8453643e-39
0.58339906 -0.19396329 1.1667269 2.767685e-39
0.58659744 -0.19345647 1.1636783 3.4134159e-39
0.59132028 -0.19345647 1.1636783 3.6900056e-39
0.59742045 -0.19390352 1.1663674 3.782197e-39
0.60104305 -0.19354571 1.1642151 3.7818383e-39
0.50970167 -0.20126228 1.2409261 1.845007e-39
0.52515328 -0.20533463 1.2660352 1.9372026e-39
0.5405972 -0.20932512 1.2906394 1.937204e-39
0.54977161 -0.21083467 1.2999469 2.1212366e-39
0.55041659 -0.20907563 1.2891011 2.2134308e-39
0.56032336 -0.21083467 1.2999469 2.0297556e-39
0.57198292 -0.21321429 1.3146189 2.3978193e-39
0.58370376 -0.21557254 1.3291591 2.3056264e-39
0.5978092 -0.21876022 1.3488137 2.3056278e-39
0.61057156 -0.22140302 1.3651084 2.3059866e-39
0.62570161 -0.22484913 1.3863561 2.1219554e-39
0.62650973 -0.22313304 1.3757752 2.3981836e-39
0.55003315 -0.19416526 1.1971681 2.3059866e-39
0.55088484 -0.19276313 1.1885229 2.3978193e-39
0.54915655 -0.19049041 1.1745099 2.3059838e-39
0.55547446 -0.19102383 1.1777989 2.2134308e-39
0.56252986 -0.19179961 1.1825821 2.1215953e-39
0.56468332 -0.19090503 1.1770663 2.1208736e-39
0.56778324 -0.19034275 1.1735996 1.7517296e-39
0.57299042 -0.19049041 1.1745099 1.2911116e-39
0.5771305 -0.19028376 1.1732358 1.3833086e-39
0.58045286 -0.18981314 1.170334 1.9375628e-39
0.58493143 -0.18972515 1.1697916 2.8602407e-39
0.58786243 -0.18914066 1.1661878 3.4134173e-39
0.59268671 -0.18916979 1.1663674 3.5978072e-39
0.59935957 -0.1897838 1.1701531 3.7821984e-39
0.6028043 -0.18937401 1.1676266 3.7818383e-39
0.51416832 -0.19794552 1.2518008 2.0293983e-39
0.52735794 -0.20103686 1.2713503 2.1215939e-39
0.54253948 -0.20482028 1.2952764 2.0301199e-39
0.54939425 -0.20541772 1.2990547 2.2145112e-39
0.55126137 -0.20415664 1.2910796 2.3059866e-39
0.5542329 -0.20332447 1.285817 2.5822133e-39
0.56941223 -0.2069446 1.3087106 2.3981836e-39
0.57983547 -0.20878522 1.3203506 2.4903792e-39
0.58631891 -0.20918652 1.3228885 2.6744132e-39
0.53402776 -0.18543595 1.1726906 2.5822161e-39
0.55230385 -0.19008805 1.2021103 2.5822161e-39
0.55244589 -0.18847205 1.1918908 2.4903792e-39
0.55129468 -0.18644674 1.1790829 2.4900191e-39
0.55773038 -0.18700008 1.1825821 2.305988e-39
0.56393927 -0.1874686 1.1855451 2.2137923e-39
0.56547457 -0.18638869 1.1787157 2.1212324e-39
0.56910652 -0.18601219 1.1763349 1.6598927e-39
0.57441622 -0.18618576 1.1774324 1.291113e-39
0.57847512 -0.18595441 1.1759694 1.2914717e-39
0.58162171 -0.18543595 1.1726906 1.8457273e-39
0.58619946 -0.18537852 1.1723275 2.7684052e-39
0.58895105 -0.18474916 1.1683474 3.505613e-39
0.59405953 -0.18486327 1.1690689 3.5981687e-39
0.60131127 -0.18563724 1.1739635 3.6900042e-39
0.60438889 -0.18512054 1.1706959 3.6900028e-39
0.60438889 -0.18512054 1.1706959 3.690007e-39
0.60438889 -0.18512054 1.1706959 3.690007e-39
0.60438889 -0.18512054 1.1706959 3.690007e-39
0.60438889 -0.18512054 1.1706959 3.5981687e-39
0.60438889 -0.18512054 1.1706959 3.7821998e-39
0.60438889 -0.18512054 1.1706959 3.782204e-39
0.60438889 -0.18512054 1.1706959 3.7818411e-39
0.60438889 -0.18512054 1.1706959 3.8740381e-39
0.51442349 -0.19296077 1.252422 2.2137881e-39
0.52620918 -0.19545038 1.2685809 2.3981794e-39
0.54004484 -0.19864574 1.2893206 2.3985423e-39
0.54620773 -0.19898462 1.2915201 2.3985437e-39
0.5478977 -0.19770302 1.2832018 2.5825763e-39
0.55086482 -0.19690207 1.2780032 2.5825777e-39
0.56774384 -0.20104237 1.3048761 2.5825749e-39
0.50736707 -0.1780021 1.155332 2.6747719e-39
0.51104218 -0.17764969 1.1530446 2.6747719e-39
0.52063805 -0.17934315 1.1640362 2.6747705e-39
0.53389943 -0.18225747 1.1829517 2.7666088e-39
0.5333668 -0.18045294 1.1712393 2.7666102e-39
0.55274266 -0.18535639 1.2030654 2.6744132e-39
0.55244589 -0.18363473 1.1918908 2.6747719e-39
0.55112302 -0.18160483 1.1787157 2.4903806e-39
0.55842817 -0.18242849 1.1840618 2.398185e-39
0.56438118 -0.18280016 1.1864741 2.3978235e-39
0.56556261 -0.18163311 1.1788992 2.2134294e-39
0.56954902 -0.18137892 1.1772494 1.7517324e-39
0.57504225 -0.18160483 1.1787157 1.3829499e-39
0.57919484 -0.18140712 1.1774324 1.2914745e-39
0.58261436 -0.18098493 1.1746922 2.0301185e-39
0.58719969 -0.18092878 1.1743277 2.9524364e-39
0.58986133 -0.1802856 1.1701531 3.5052528e-39
0.59534657 -0.18050879 1.1716018 3.5056144e-39
0.60308808 -0.18140712 1.1774324 3.59781e-39
0.60588789 -0.18081659 1.1735996 3.6900042e-39
0.50053144 -0.18648952 1.2431676 2.3978207e-39
0.50875133 -0.18766047 1.2509733 2.4900177e-39
0.51966745 -0.18979298 1.2651889 2.4903792e-39
0.53083444 -0.19197451 1.2797314 2.582935e-39
0.54571384 -0.19544333 1.302855 2.5829364e-39
0.55185622 -0.1957465 1.3048761 2.5825791e-39
0.55648071 -0.19551061 1.3033036 2.6747733e-39
0.56128711 -0.19534248 1.3021828 2.5832937e-39
0.57287824 -0.19751672 1.3166766 2.6754865e-39
0.50736707 -0.17331317 1.155332 2.7673276e-39
0.51104218 -0.17297003 1.1530446 2.6754908e-39
0.52063805 -0.17461887 1.1640362 2.7673248e-39
0.53389943 -0.17745644 1.1829517 2.7676864e-39
0.5333668 -0.17569944 1.1712393 2.8595247e-39
0.55212855 -0.18027321 1.2017287 2.7673262e-39
0.55227202 -0.17874114 1.1915157 2.5832937e-39
0.55129468 -0.17687605 1.1790829 2.7669661e-39
0.55912775 -0.17784546 1.1855451 2.490738e-39
0.56455815 -0.17804062 1.186846 2.3059866e-39
0.5656507 -0.17687605 1.1790829 2.1212366e-39
0.56990349 -0.17671093 1.1779821 1.7517338e-39
0.57540059 -0.17693117 1.1794502 1.2911144e-39
0.57982612 -0.17682098 1.1787157 1.2914745e-39
0.58333844 -0.17643641 1.1761521 2.0297598e-39
0.58783793 -0.17635421 1.1756041 3.0442719e-39
0.59040886 -0.17569944 1.1712393 3.5974485e-39
0.59589988 -0.17591716 1.1726906 3.5059717e-39
0.60393339 -0.17687605 1.1790829 3.5974513e-39
0.60635787 -0.17619006 1.1745099 3.6896483e-39
0.60635787 -0.17619006 1.1745099 3.5974541e-39
0.60635787 -0.17619006 1.1745099 3.690007e-39
0.60635787 -0.17619006 1.1745099 3.690007e-39
0.60635787 -0.17619006 1.1745099 3.7818439e-39
0.60635787 -0.17619006 1.1745099 3.7818439e-39
0.60635787 -0.17619006 1.1745099 3.7818411e-39
0.60635787 -0.17619006 1.1745099 3.5981701e-39
0.60635787 -0.17619006 1.1745099 3.6903671e-39
0.60635787 -0.17619006 1.1745099 3.690007e-39
0.60635787 -0.17619006 1.1745099 3.5978114e-39
0.60635787 -0.17619006 1.1745099 3.7814824e-39
0.60635787 -0.17619006 1.1745099 3.6896469e-39
0.50442439 -0.18285529 1.2528365 2.398185e-39
0.51247722 -0.18392053 1.2601349 2.4900219e-39
0.5199281 -0.1847508 1.2658236 2.6744118e-39
0.53119361 -0.18690705 1.2805972 2.6751292e-39
0.54590172 -0.19022113 1.3033036 2.5832951e-39
0.55185622 -0.19045062 1.3048761 2.6747719e-39
0.55792141 -0.19071358 1.3066777 2.6751306e-39
0.56478423 -0.1912417 1.3102961 2.7673248e-39
0.57447678 -0.19270919 1.3203506 2.8591631e-39
0.50605428 -0.1681879 1.1523426 2.7676864e-39
0.51003242 -0.16795783 1.1507661 2.8598806e-39
0.51872391 -0.16926999 1.1597565 2.7680437e-39
0.53607726 -0.17335966 1.187777 2.7680465e-39
0.53419322 -0.1712108 1.1730541 2.8598848e-39
0.55230385 -0.17545165 1.2021103 2.7676878e-39
0.55209821 -0.17385061 1.1911408 2.675132e-39
0.55112302 -0.17203714 1.1787157 2.3985423e-39
0.55930293 -0.17308812 1.1859164 2.4903792e-39
0.56438118 -0.17316949 1.1864741 2.305988e-39
0.56591511 -0.17217116 1.179634 2.2130721e-39
0.57034719 -0.17206392 1.1788992 1.6598969e-39
0.57557994 -0.172198 1.1798178 1.2914717e-39
0.58000672 -0.17209072 1.1790829 1.2914731e-39
0.58351976 -0.17171632 1.1765176 2.0297584e-39
0.58802056 -0.1716363 1.1759694 3.0439117e-39
0.59040886 -0.17094593 1.1712393 3.4137747e-39
0.59599221 -0.17118427 1.1728723 3.5063318e-39
0.60421568 -0.17217116 1.179634 3.690007e-39
0.60626382 -0.1713967 1.1743277 3.781488e-39
0.60626382 -0.1713967 1.1743277 3.5981729e-39
0.60626382 -0.1713967 1.1743277 3.6900084e-39
0.60626382 -0.1713967 1.1743277 3.7822012e-39
0.60626382 -0.1713967 1.1743277 3.7822026e-39
0.60626382 -0.1713967 1.1743277 3.6903657e-39
0.60626382 -0.1713967 1.1743277 3.7822012e-39
0.60626382 -0.1713967 1.1743277 3.6907245e-39
0.60626382 -0.1713967 1.1743277 3.6900056e-39
0.60626382 -0.1713967 1.1743277 3.6900056e-39
0.60626382 -0.1713967 1.1743277 3.6900042e-39
0.60626382 -0.1713967 1.1743277 3.7818411e-39
0.50593138 -0.17830172 1.2565794 2.4907408e-39
0.51341724 -0.1791342 1.2624464 2.6744146e-39
0.52018899 -0.17970356 1.2664589 2.6751292e-39
0.53335881 -0.18245038 1.285817 2.6751306e-39
0.54797703 -0.18563467 1.3082583 2.7669675e-39
0.5512861 -0.18496348 1.3035281 2.6747719e-39
0.55676824 -0.18502718 1.303977 2.7669675e-39
0.56449109 -0.18582734 1.3096161 2.8591631e-39
0.57387626 -0.18715468 1.3189706 2.8591645e-39
0.50276369 -0.16244788 1.1448497 2.8595233e-39
0.50741011 -0.16244788 1.1448497 2.8598792e-39
0.51642972 -0.16383527 1.1546272 2.767685e-39
0.52690154 -0.16565426 1.1674465 2.859882e-39
0.5311482 -0.16550113 1.1663674 3.0431943e-39
0.55300629 -0.17078981 1.2036393 2.767685e-39
0.55244589 -0.16912277 1.1918908 2.6754893e-39
0.55120879 -0.16727933 1.1788992 2.4910967e-39
0.55991685 -0.16845976 1.1872183 2.3985409e-39
0.56473517 -0.16845976 1.1872183 2.3059866e-39
0.56644464 -0.16754022 1.1807379 2.1212338e-39
0.57114762 -0.16751409 1.1805537 1.5680586e-39
0.57611859 -0.16756634 1.180922 1.3829485e-39
0.58054918 -0.16746187 1.1801857 1.4755042e-39
0.5842461 -0.16714919 1.1779821 2.0301185e-39
0.58875215 -0.16707121 1.1774324 2.8598806e-39
0.59114051 -0.16639836 1.1726906 3.3208588e-39
0.59673178 -0.16663066 1.1743277 3.5978058e-39
0.60506415 -0.16761865 1.1812905 3.59781e-39
0.60664022 -0.16673411 1.1750568 3.5978128e-39
0.60664022 -0.16673411 1.1750568 3.5063346e-39
0.60664022 -0.16673411 1.1750568 3.6907245e-39
0.60664022 -0.16673411 1.1750568 3.6903643e-39
0.60664022 -0.16673411 1.1750568 3.690007e-39
0.60664022 -0.16673411 1.1750568 3.6903657e-39
0.60664022 -0.16673411 1.1750568 3.6903657e-39
0.60664022 -0.16673411 1.1750568 3.6903657e-39
0.60664022 -0.16673411 1.1750568 3.7822026e-39
0.60664022 -0.16673411 1.1750568 3.7818411e-39
0.60664022 -0.16673411 1.1750568 3.6900028e-39
0.60664022 -0.16673411 1.1750568 3.5978086e-39
0.50744742 -0.17372087 1.2603447 2.6744118e-39
0.51401722 -0.17421389 1.2639216 2.6751334e-39
0.51949382 -0.17433031 1.2647662 2.675132e-39
0.5302071 -0.17618456 1.278219 2.675132e-39
0.54412204 -0.17905648 1.2990547 2.7673262e-39
0.54901749 -0.17893368 1.2981638 2.8591631e-39
0.55676824 -0.17973496 1.303977 2.8595219e-39
0.56449109 -0.18051223 1.3096161 2.8595219e-39
0.57198292 -0.1812018 1.3146189 2.8595233e-39
0.50713491 -0.15917346 1.1548034 2.9517203e-39
0.51018751 -0.15866522 1.1511161 2.9513588e-39
0.51816827 -0.15968496 1.1585143 2.8595247e-39
0.52495873 -0.16032282 1.163142 2.8595247e-39
0.53098464 -0.16071787 1.1660081 2.8598806e-39
0.5502072 -0.16506505 1.1975468 2.8595219e-39
0.55053914 -0.16371842 1.187777 2.6751306e-39
0.55035186 -0.1622421 1.1770663 2.5825763e-39
0.55930293 -0.16346197 1.1859164 2.3059866e-39
0.56420434 -0.16348758 1.1861023 2.2141497e-39
0.56609148 -0.1626467 1.1800017 1.9375628e-39
0.57114762 -0.16272278 1.1805537 1.5680614e-39
0.57593894 -0.16272278 1.1805537 1.2911116e-39
0.58036822 -0.16262135 1.1798178 1.1996348e-39
0.58451891 -0.16244414 1.1785322 2.2141511e-39
0.58902699 -0.16236833 1.1779821 2.9520762e-39
0.59150696 -0.16173919 1.1734177 3.1371878e-39
0.59719491 -0.16199026 1.1752392 3.5056102e-39
0.60553658 -0.16295147 1.1822128 3.5978072e-39
0.60692281 -0.16204056 1.1756041 3.5978114e-39
0.60692281 -0.16204056 1.1756041 3.6903657e-39
0.60692281 -0.16204056 1.1756041 3.6903643e-39
0.60692281 -0.16204056 1.1756041 3.6903643e-39
0.60692281 -0.16204056 1.1756041 3.7821984e-39
0.60692281 -0.16204056 1.1756041 3.7821998e-39
0.60692281 -0.16204056 1.1756041 3.6907231e-39
0.60692281 -0.16204056 1.1756041 3.7822012e-39
0.60692281 -0.16204056 1.1756041 3.7822012e-39
0.60692281 -0.16204056 1.1756041 3.7822012e-39
0.60692281 -0.16204056 1.1756041 3.7821998e-39
0.60692281 -0.16204056 1.1756041 3.7818425e-39
0.50744742 -0.16860572 1.2603447 2.5832951e-39
0.51418889 -0.16914071 1.2643439 2.6754908e-39
0.51862741 -0.16891503 1.2626569 2.6754893e-39
0.52895677 -0.17059366 1.2752048 2.7673262e-39
0.54216844 -0.1731603 1.2943907 2.8591631e-39
0.54620773 -0.17277628 1.2915201 2.7673248e-39
0.5556199 -0.17408293 1.3012875 2.8595219e-39
0.56032336 -0.1739036 1.2999469 2.8595219e-39
0.5655992 -0.1739036 1.2999469 2.767685e-39
0.56161767 -0.17108354 1.2788666 3.0435558e-39
0.56988841 -0.17201334 1.285817 2.9513602e-39
0.52127922 -0.15591358 1.1654696 3.0435572e-39
0.53041857 -0.15722051 1.1752392 2.9520804e-39
0.53344935 -0.15670966 1.1714205 2.859882e-39
0.54959863 -0.16002758 1.1962223 2.8591617e-39
0.5501076 -0.15877324 1.186846 2.7669661e-39
0.54983896 -0.15731819 1.1759694 2.4903792e-39
0.55877775 -0.15849993 1.1848029 2.3063453e-39
0.56349808 -0.15847513 1.1846175 2.2137923e-39
0.56547457 -0.15768559 1.1787157 1.9372026e-39
0.57034719 -0.15771015 1.1788992 1.6598955e-39
0.57504225 -0.15768559 1.1787157 1.2907542e-39
0.57919484 -0.15751393 1.1774324 1.3840261e-39
0.58370119 -0.15744047 1.1768833 2.1223156e-39
0.58829468 -0.15739153 1.1765176 2.7684038e-39
0.59086591 -0.15680671 1.172146 3.1375493e-39
0.59663922 -0.15707421 1.1741456 3.4134187e-39
0.6049698 -0.15800539 1.1811062 3.505613e-39
0.60616982 -0.15707421 1.1741456 3.6900042e-39
0.60616982 -0.15707421 1.1741456 3.59781e-39
0.60616982 -0.15707421 1.1741456 3.6900056e-39
0.60616982 -0.15707421 1.1741456 3.6903657e-39
0.60616982 -0.15707421 1.1741456 3.7822012e-39
0.60616982 -0.15707421 1.1741456 3.78256e-39
0.60616982 -0.15707421 1.1741456 3.6903657e-39
0.60616982 -0.15707421 1.1741456 3.7821998e-39
0.60616982 -0.15707421 1.1741456 3.7818425e-39
0.60616982 -0.15707421 1.1741456 3.782204e-39
0.60616982 -0.15707421 1.1741456 3.7822026e-39
0.60616982 -0.15707421 1.1741456 3.7818425e-39
0.50668824 -0.16324599 1.2584592 2.7666074e-39
0.51333165 -0.1637359 1.2622359 2.7673262e-39
0.51776385 -0.1635178 1.2605546 2.7673276e-39
0.5277124 -0.16502905 1.2722048 2.767329e-39
0.53995287 -0.16722082 1.2891011 2.7673262e-39
0.54602146 -0.16747747 1.2910796 2.8595219e-39
0.55898261 -0.16982326 1.3091632 2.8595233e-39
0.56449109 -0.16988201 1.3096161 2.8595219e-39
0.57198292 -0.17053097 1.3146189 2.767685e-39
0.56882405 -0.16802189 1.2952764 2.8591645e-39
0.51401705 -0.15044239 1.1597565 2.9513602e-39
0.52256632 -0.15155677 1.1683474 2.8595219e-39
0.52967858 -0.15223809 1.1735996 2.9517189e-39
0.53419322 -0.15216732 1.1730541 2.8591645e-39
0.54977238 -0.15522173 1.1966004 2.8588044e-39
0.55036646 -0.15402885 1.1874044 2.6744118e-39
0.54941225 -0.15242711 1.1750568 2.3981836e-39
0.55904019 -0.15376356 1.1853595 2.2134294e-39
0.56332183 -0.15361926 1.1842469 2.120875e-39
0.5651226 -0.15280658 1.1779821 1.9364824e-39
0.56999218 -0.15283036 1.1781654 1.751731e-39
0.57477379 -0.15283036 1.1781654 1.3829485e-39
0.57874483 -0.15261661 1.1765176 1.2918332e-39
0.58351976 -0.15261661 1.1765176 2.122317e-39
0.58811188 -0.15256919 1.1761521 2.8602421e-39
0.59086591 -0.15204953 1.172146 3.3208616e-39
0.59663922 -0.15230891 1.1741456 3.4134173e-39
0.60525304 -0.15328358 1.1816592 3.5978086e-39
0.60626382 -0.15233254 1.1743277 3.6896441e-39
0.60626382 -0.15233254 1.1743277 3.6896455e-39
0.60626382 -0.15233254 1.1743277 3.6900056e-39
0.60626382 -0.15233254 1.1743277 3.6900084e-39
0.60626382 -0.15233254 1.1743277 3.7822026e-39
0.60626382 -0.15233254 1.1743277 3.8740381e-39
0.60626382 -0.15233254 1.1743277 3.7822026e-39
0.60626382 -0.15233254 1.1743277 3.7822012e-39
0.60626382 -0.15233254 1.1743277 3.6896469e-39
0.60626382 -0.15233254 1.1743277 3.690007e-39
0.60626382 -0.15233254 1.1743277 3.8740367e-39
0.60626382 -0.15233254 1.1743277 3.7818425e-39
0.50559568 -0.15779752 1.2557456 2.6747733e-39
0.51247722 -0.15834907 1.2601349 2.7669675e-39
0.51698917 -0.1581648 1.2586684 2.675132e-39
0.52594483 -0.15933031 1.2679435 2.7673248e-39
0.54676741 -0.16245922 1.2928433 2.7669661e-39
0.56238633 -0.1655117 1.3171347 2.7673276e-39
0.57081044 -0.16640918 1.3242768 2.7673276e-39
0.57558095 -0.1662347 1.3228885 2.7676878e-39
0.57731837 -0.16519555 1.3146189 2.8588058e-39
0.58043647 -0.1645669 1.3096161 2.8591631e-39
0.52103859 -0.14638579 1.1649317 2.7673234e-39
0.52520078 -0.14622828 1.1636783 2.7673276e-39
0.5326252 -0.14697377 1.1696109 2.6747733e-39
0.54933822 -0.15024656 1.1956555 2.4903778e-39
0.5506255 -0.14927997 1.1879634 2.3059866e-39
0.54932696 -0.14763521 1.1748744 2.2134294e-39
0.55974132 -0.14913955 1.186846 2.0290381e-39
0.56340992 -0.14883624 1.1844323 1.9368411e-39
0.56521058 -0.14804874 1.1781654 1.9361222e-39
0.57052487 -0.14818712 1.1792665 1.4755028e-39
0.57540059 -0.1482102 1.1794502 1.2907514e-39
0.57928497 -0.14797966 1.1776156 1.3840275e-39
0.58406436 -0.14797966 1.1776156 2.1219554e-39
0.58847761 -0.14788765 1.1768833 2.859882e-39
0.59123206 -0.14738362 1.1728723 3.2286645e-39
0.59682435 -0.1475894 1.1745099 3.4134173e-39
0.60563117 -0.14858055 1.1823975 3.505613e-39
0.60598183 -0.14749786 1.1737815 3.5974513e-39
0.60598183 -0.14749786 1.1737815 3.6896427e-39
0.60598183 -0.14749786 1.1737815 3.6900056e-39
0.60598183 -0.14749786 1.1737815 3.5981715e-39
0.60598183 -0.14749786 1.1737815 3.690007e-39
0.60598183 -0.14749786 1.1737815 3.8736808e-39
0.60598183 -0.14749786 1.1737815 3.9655163e-39
0.60598183 -0.14749786 1.1737815 3.6900042e-39
0.60598183 -0.14749786 1.1737815 3.6903643e-39
0.60598183 -0.14749786 1.1737815 3.6896455e-39
0.50567961 -0.15272637 1.255954 2.6747705e-39
0.51247722 -0.15323478 1.2601349 2.582935e-39
0.52541685 -0.15402955 1.2666707 2.7669647e-39
0.54864115 -0.15775095 1.297274 2.7669661e-39
0.56464565 -0.16080953 1.3224263 2.6747719e-39
0.57422543 -0.16199799 1.3321997 2.5832951e-39
0.57729578 -0.16134501 1.3268298 2.6751306e-39
0.57872522 -0.16024971 1.3178226 2.7669647e-39
0.57773817 -0.15851146 1.3035281 2.6747677e-39
0.52152008 -0.14178878 1.1660081 2.6751264e-39
0.52351099 -0.14105019 1.1599343 2.4910967e-39
0.52992362 -0.14150546 1.1636783 2.3985395e-39
0.54899144 -0.14530218 1.1949006 2.305625e-39
0.55053914 -0.14443593 1.187777 2.3052649e-39
0.54949754 -0.1429113 1.1752392 2.1212324e-39
0.5603562 -0.14448126 1.1881498 1.9371998e-39
0.56340992 -0.14402919 1.1844323 1.8450042e-39
0.56521058 -0.14326712 1.1781654 1.7520897e-39
0.57070267 -0.14344572 1.179634 1.4755014e-39
0.57531095 -0.14340103 1.1792665 1.2911088e-39
0.57919484 -0.143178 1.1774324 1.2918304e-39
0.58397353 -0.143178 1.1774324 2.2137909e-39
0.5885691 -0.14313349 1.1770663 3.2279457e-39
0.59150696 -0.14268979 1.1734177 3.4134187e-39
0.59710222 -0.14288911 1.1750568 3.4134201e-39
0.60563117 -0.14378175 1.1823975 3.5056144e-39
0.60570014 -0.14266768 1.1732358 3.6892853e-39
0.60570014 -0.14266768 1.1732358 3.6900028e-39
0.60570014 -0.14266768 1.1732358 3.598526e-39
0.60570014 -0.14266768 1.1732358 3.6903629e-39
0.60570014 -0.14266768 1.1732358 3.7821984e-39
0.60570014 -0.14266768 1.1732358 3.7814838e-39
0.60570014 -0.14266768 1.1732358 3.6896483e-39
0.60570014 -0.14266768 1.1732358 3.7818439e-39
0.60570014 -0.14266768 1.1732358 3.7818439e-39
0.60570014 -0.14266768 1.1732358 3.7818425e-39
0.60570014 -0.14266768 1.1732358 3.8736766e-39
0.60570014 -0.14266768 1.1732358 3.6896455e-39
0.60570014 -0.14266768 1.1732358 3.6900042e-39
0.50083154 -0.14770256 1.2565794 2.4903778e-39
0.50677252 -0.14794812 1.2586684 2.3985395e-39
0.51358855 -0.14844169 1.2628676 2.3985409e-39
0.5178501 -0.14819449 1.2607645 2.4907394e-39
0.52612102 -0.14908828 1.2683684 2.5825749e-39
0.53530437 -0.15022078 1.2780032 2.5825735e-39
0.54742175 -0.15214702 1.2943907 2.6744089e-39
0.5636611 -0.15517139 1.3201205 2.5825749e-39
0.57171041 -0.15590538 1.3263649 2.3985423e-39
0.57648754 -0.15574168 1.3249722 2.5825749e-39
0.57541996 -0.1540166 1.3102961 2.4903778e-39
0.57615095 -0.15280013 1.2999469 2.5822119e-39
0.52135944 -0.13701431 1.1656491 2.4900191e-39
0.52351099 -0.13634257 1.1599343 2.3063453e-39
0.52813774 -0.13632168 1.1597565 2.2137895e-39
0.54537624 -0.13952774 1.1870321 2.213428e-39
0.54993516 -0.13946214 1.1864741 2.0290381e-39
0.54949754 -0.13814156 1.1752392 1.8446455e-39
0.56088436 -0.13979076 1.1892697 1.7528072e-39
0.56358629 -0.13926572 1.1848029 1.6598941e-39
0.5652985 -0.13850707 1.1783488 1.6598927e-39
0.57105857 -0.13874461 1.1803696 1.4751427e-39
0.57522136 -0.13859336 1.1790829 1.1992747e-39
0.57937509 -0.13844243 1.1777989 1.2918304e-39
0.5842461 -0.13846397 1.1779821 2.2141511e-39
0.58893532 -0.13844243 1.1777989 3.1357472e-39
0.59205753 -0.13805583 1.1745099 3.3208588e-39
0.59747314 -0.13820592 1.1757867 3.4130572e-39
0.60582036 -0.13902639 1.1827669 3.597447e-39
0.60570014 -0.13790607 1.1732358 3.597447e-39
0.60570014 -0.13790607 1.1732358 3.6903643e-39
0.60570014 -0.13790607 1.1732358 3.598526e-39
0.60570014 -0.13790607 1.1732358 3.5985246e-39
0.60570014 -0.13790607 1.1732358 3.6903601e-39
0.60570014 -0.13790607 1.1732358 3.8740367e-39
0.60570014 -0.13790607 1.1732358 3.6903657e-39
0.60570014 -0.13790607 1.1732358 3.5985274e-39
0.60570014 -0.13790607 1.1732358 3.6903657e-39
0.60570014 -0.13790607 1.1732358 3.7822026e-39
0.60570014 -0.13790607 1.1732358 3.5981659e-39
0.60570014 -0.13790607 1.1732358 3.69e-39
0.60570014 -0.13790607 1.1732358 3.7818383e-39
0.50108099 -0.14267375 1.2572054 2.2137881e-39
0.50643569 -0.14274485 1.2578321 2.3981794e-39
0.5136742 -0.14334022 1.2630782 2.3981808e-39
0.51810896 -0.14314917 1.2613946 2.4903792e-39
0.52603292 -0.14391646 1.2681559 2.3063467e-39
0.53566605 -0.14513198 1.2788666 2.3063453e-39
0.54779637 -0.14699423 1.2952764 2.3978207e-39
0.56336641 -0.14973532 1.3194302 2.3063439e-39
0.57201105 -0.15060145 1.3270624 2.4903778e-39
0.57477748 -0.14991821 1.3210418 2.4896618e-39
0.57087511 -0.14752425 1.2999469 2.3981822e-39
0.57496625 -0.14722091 1.297274 2.3063453e-39
0.52152008 -0.13232423 1.1660081 2.2137923e-39
0.52351099 -0.13163494 1.1599343 2.2134322e-39
0.52821863 -0.13163494 1.1599343 2.120875e-39
0.54172397 -0.13380802 1.1790829 2.1205149e-39
0.54967678 -0.13458353 1.1859164 1.8446483e-39
0.54949754 -0.13337182 1.1752392 1.7524512e-39
0.56088436 -0.13496406 1.1892697 1.56806e-39
0.56402761 -0.13456245 1.1857307 1.6595368e-39
0.56547457 -0.13376635 1.1787157 1.5676999e-39
0.57150406 -0.13405855 1.1812905 1.2914703e-39
0.57540059 -0.13384971 1.1794502 1.1992733e-39
0.57919484 -0.13362072 1.1774324 1.1999949e-39
0.5842461 -0.1336831 1.1779821 2.3063453e-39
0.5891186 -0.1337039 1.1781654 2.9520748e-39
0.59242517 -0.13337182 1.1752392 3.3208616e-39
0.59803039 -0.13355841 1.1768833 3.4134173e-39
0.60695827 -0.13447821 1.1849884 3.597447e-39
0.60711133 -0.13345468 1.1759694 3.5052542e-39
0.60711133 -0.13345468 1.1759694 3.5985303e-39
0.60711133 -0.13345468 1.1759694 3.6900056e-39
0.60711133 -0.13345468 1.1759694 3.5981673e-39
0.60711133 -0.13345468 1.1759694 3.598526e-39
0.60711133 -0.13345468 1.1759694 3.690007e-39
0.60711133 -0.13345468 1.1759694 3.7818439e-39
0.60711133 -0.13345468 1.1759694 3.6900042e-39
0.60711133 -0.13345468 1.1759694 3.597447e-39
0.60711133 -0.13345468 1.1759694 3.6896441e-39
0.50033325 -0.13736604 1.2553293 2.2134294e-39
0.50534427 -0.13734327 1.2551211 2.2137867e-39
0.51281863 -0.13798378 1.2609745 2.2137895e-39
0.51621675 -0.13752566 1.256788 2.3059852e-39
0.52532893 -0.13858391 1.2664589 2.2137895e-39
0.53350323 -0.13937661 1.273703 2.305625e-39
0.54742175 -0.14164038 1.2943907 2.3056264e-39
0.56317014 -0.14433007 1.3189706 2.1219554e-39
0.57615167 -0.1462667 1.3366686 2.2137923e-39
0.57739699 -0.14521553 1.3270624 2.2134322e-39
0.67099422 -0.16719568 1.5279295 2.2134294e-39
0.57913411 -0.14298491 1.3066777 2.213428e-39
0.52031803 -0.12729788 1.1633207 2.120875e-39
0.52821863 -0.12692732 1.1599343 2.0283193e-39
0.54950458 -0.12972982 1.1855451 1.7520925e-39
0.55043739 -0.12882206 1.1772494 1.56806e-39
0.56097245 -0.13015783 1.1894566 1.56806e-39
0.563851 -0.12970951 1.1853595 1.4755042e-39
0.56556261 -0.12900259 1.1788992 1.4751455e-39
0.57159328 -0.12928443 1.1814748 1.3829471e-39
0.57549024 -0.12908299 1.179634 1.1989117e-39
0.57910478 -0.12882206 1.1772494 1.1999921e-39
0.5841552 -0.12888217 1.1777989 2.2141497e-39
0.58893532 -0.12888217 1.1777989 3.0439145e-39
0.59214944 -0.12854221 1.1746922 3.320863e-39
0.59765881 -0.12870197 1.1761521 3.4137761e-39
0.60610443 -0.1294865 1.1833215 3.5978086e-39
0.60616982 -0.12848242 1.1741456 3.4134201e-39
0.60616982 -0.12848242 1.1741456 3.6896483e-39
0.60616982 -0.12848242 1.1741456 3.6896469e-39
0.60616982 -0.12848242 1.1741456 3.7818425e-39
0.60616982 -0.12848242 1.1741456 3.5978114e-39
0.60616982 -0.12848242 1.1741456 3.6903629e-39
0.60616982 -0.12848242 1.1741456 3.7822012e-39
0.60616982 -0.12848242 1.1741456 3.6900084e-39
0.60616982 -0.12848242 1.1741456 3.5978128e-39
0.60616982 -0.12848242 1.1741456 3.5056172e-39
0.50000167 -0.13218358 1.2544972 2.0293983e-39
0.50459141 -0.1320523 1.2532512 2.0293955e-39
0.51154065 -0.13253497 1.2578321 2.0293983e-39
0.5136587 -0.13176875 1.25056 2.1215939e-39
0.52410156 -0.13313217 1.2634997 2.1215939e-39
0.54379582 -0.13548368 1.285817 2.1215925e-39
0.56238633 -0.13878357 1.3171347 2.1215953e-39
0.58608532 -0.14327011 1.3597146 2.0290409e-39
0.64997035 -0.15740488 1.4938617 2.0290381e-39
0.67645502 -0.16230477 1.5403644 2.0290367e-39
0.71076107 -0.16897435 1.6036625 2.028678e-39
0.5293541 -0.12248241 1.1624275 1.7524498e-39
0.55071193 -0.12519272 1.1881498 1.6598969e-39
0.5521546 -0.12443113 1.180922 1.5676999e-39
0.56229758 -0.12562644 1.1922662 1.475863e-39
0.56455815 -0.12505533 1.186846 1.4751469e-39
0.56600326 -0.12431479 1.1798178 1.4751441e-39
0.57195032 -0.12456714 1.1822128 1.3833058e-39
0.57549024 -0.12429541 1.179634 1.1989145e-39
0.57901478 -0.12402487 1.1770663 1.2918318e-39
0.58388269 -0.12404416 1.1772494 2.2145112e-39
0.5886606 -0.12404416 1.1772494 3.1361116e-39
0.59178215 -0.12369793 1.1739635 3.3205014e-39
0.59765881 -0.12392853 1.1761521 3.5052528e-39
0.60610443 -0.12468395 1.1833215 3.59781e-39
0.60570014 -0.12362126 1.1732358 3.5974513e-39
0.60570014 -0.12362126 1.1732358 3.5978114e-39
0.60570014 -0.12362126 1.1732358 3.6896483e-39
0.60570014 -0.12362126 1.1732358 3.6896483e-39
0.60570014 -0.12362126 1.1732358 3.6900042e-39
0.60570014 -0.12362126 1.1732358 3.5985303e-39
0.60570014 -0.12362126 1.1732358 3.5059759e-39
0.60570014 -0.12362126 1.1732358 3.4134215e-39
0.50392407 -0.12679803 1.2515938 1.9368425e-39
0.51188082 -0.12751476 1.2586684 2.0286808e-39
0.5146789 -0.12694493 1.2530438 1.9368411e-39
0.52488995 -0.12819678 1.2654004 2.0293969e-39
0.54527754 -0.13062011 1.2893206 2.0290367e-39
0.56405455 -0.13383377 1.3210418 1.9371998e-39
0.61433041 -0.1443903 1.425243 1.9368411e-39
0.64614552 -0.15045141 1.4850708 1.9368411e-39
0.66615438 -0.15367688 1.5169086 1.9371998e-39
0.55288112 -0.1208447 1.1928298 1.6595354e-39
0.55518556 -0.12029506 1.1874044 1.6595339e-39
0.56380701 -0.12111184 1.1954668 1.4755028e-39
0.56588882 -0.12052189 1.1896434 1.4755042e-39
0.56715226 -0.1197691 1.1822128 1.5673411e-39
0.57338285 -0.12006909 1.1851739 1.3829485e-39
0.5771088 -0.11984395 1.1829517 1.1989145e-39
0.58073026 -0.11960101 1.1805537 1.2921906e-39
0.58579558 -0.11965699 1.1811062 2.3989025e-39
0.59058911 -0.11965699 1.1811062 3.2283072e-39
0.5936231 -0.11930336 1.1776156 3.5052514e-39
0.59942812 -0.11950783 1.179634 3.5052528e-39
0.60810041 -0.1202762 1.1872183 3.5052556e-39
0.60758322 -0.11922918 1.1768833 3.5056158e-39
0.60758322 -0.11922918 1.1768833 3.5974513e-39
0.60758322 -0.11922918 1.1768833 3.5974485e-39
0.60758322 -0.11922918 1.1768833 3.59781e-39
0.60758322 -0.11922918 1.1768833 3.6896469e-39
0.60758322 -0.11922918 1.1768833 3.5981673e-39
0.60758322 -0.11922918 1.1768833 3.5981701e-39
0.60758322 -0.11922918 1.1768833 3.5059731e-39
0.60758322 -0.11922918 1.1768833 3.4137761e-39
0.50016737 -0.12204122 1.2549131 1.9361222e-39
0.5042575 -0.12179895 1.252422 1.8446483e-39
0.51256257 -0.12256944 1.2603447 1.8446483e-39
0.56752044 -0.1292617 1.3291591 1.8446469e-39
0.62865019 -0.14183676 1.4584647 1.9364824e-39
0.65151304 -0.14562394 1.4974072 1.8446469e-39
0.67467058 -0.14940639 1.5363009 1.9364838e-39
0.55445355 -0.11633348 1.1962223 1.4755014e-39
0.55693251 -0.11583931 1.1911408 1.6591752e-39
0.56452012 -0.11640706 1.1969788 1.7513722e-39
0.56615567 -0.11574826 1.1902045 1.5673397e-39
0.56777287 -0.11509687 1.1835065 1.5669796e-39
0.57419181 -0.11542164 1.186846 1.4751441e-39
0.57783109 -0.1151869 1.1844323 1.2911116e-39
0.58145559 -0.11495311 1.1820282 1.3840289e-39
0.5866192 -0.11502494 1.1827669 2.398185e-39
0.5912348 -0.11498901 1.1823975 3.2283058e-39
0.59417766 -0.11463096 1.1787157 3.3208588e-39
0.60008264 -0.11484552 1.180922 3.5970869e-39
0.60886425 -0.11560287 1.1887095 3.596731e-39
0.60871875 -0.11466666 1.1790829 3.5970897e-39
0.60871875 -0.11466666 1.1790829 3.5970883e-39
0.60871875 -0.11466666 1.1790829 3.5052514e-39
0.60871875 -0.11466666 1.1790829 3.6892811e-39
0.60871875 -0.11466666 1.1790829 3.6892825e-39
0.60871875 -0.11466666 1.1790829 3.5052528e-39
0.60871875 -0.11466666 1.1790829 3.4134159e-39
0.60871875 -0.11466666 1.1790829 3.3212203e-39
0.60871875 -0.11466666 1.1790829 3.3212189e-39
0.50108099 -0.11716174 1.2572054 1.7520911e-39
0.50442439 -0.11675459 1.2528365 1.6602542e-39
0.51358855 -0.11768941 1.2628676 1.6606144e-39
0.57143301 -0.12472123 1.3383225 1.8442867e-39
0.62491828 -0.13511069 1.4498067 1.8442853e-39
0.65566278 -0.1404355 1.5069448 1.8439266e-39
0.55533099 -0.111655 1.1981153 1.5676957e-39
0.55789804 -0.11119748 1.1932058 1.5676957e-39
0.56514555 -0.11167268 1.198305 1.5676971e-39
0.56633377 -0.11095266 1.1905788 1.5676985e-39
0.56830591 -0.11039712 1.1846175 1.4755e-39
0.574462 -0.11065684 1.1874044 1.4755e-39
0.57837397 -0.11048356 1.1855451 1.291113e-39
0.58209175 -0.11027633 1.1833215 1.2921934e-39
0.5870778 -0.11031082 1.1836915 1.937204e-39
0.59151191 -0.11024188 1.1829517 2.3063467e-39
0.59454787 -0.10991556 1.1794502 2.4903806e-39
0.60026985 -0.11008707 1.1812905 2.3981864e-39
0.60886425 -0.11077846 1.1887095 2.4903806e-39
0.60824507 -0.10979583 1.1781654 2.398185e-39
0.60824507 -0.10979583 1.1781654 2.214514e-39
0.60824507 -0.10979583 1.1781654 2.4907422e-39
0.60824507 -0.10979583 1.1781654 2.3985451e-39
0.60824507 -0.10979583 1.1781654 2.3063481e-39
0.60824507 -0.10979583 1.1781654 2.3989067e-39
0.60824507 -0.10979583 1.1781654 2.3067096e-39
0.60824507 -0.10979583 1.1781654 2.3067082e-39
0.60824507 -0.10979583 1.1781654 2.398185e-39
0.50058228 -0.1119478 1.255954 1.6595339e-39
0.50409073 -0.11159606 1.2520077 1.6602528e-39
0.5136742 -0.1125828 1.2630782 1.7520911e-39
0.55638754 -0.10699561 1.2003949 1.5676957e-39
0.55886692 -0.10653953 1.1952779 1.4758602e-39
0.56577241 -0.1069278 1.1996341 1.6602542e-39
0.5668686 -0.10622089 1.1917032 1.5676999e-39
0.56910735 -0.10573822 1.1862881 1.5676999e-39
0.5748226 -0.10590416 1.1881498 1.3833072e-39
0.5788272 -0.10575479 1.1864741 1.1992747e-39
0.58263814 -0.1055728 1.1844323 1.4765818e-39
0.58753711 -0.10558932 1.1846175 2.3059852e-39
0.59188187 -0.10550678 1.1836915 2.5832937e-39
0.59491861 -0.10519429 1.1801857 2.6754936e-39
0.60026985 -0.10529277 1.1812905 2.7673305e-39
0.60838664 -0.10587093 1.187777 2.8595261e-39
0.60711133 -0.10481847 1.1759694 2.8598876e-39
0.60711133 -0.10481847 1.1759694 2.9517217e-39
0.60711133 -0.10481847 1.1759694 2.9517189e-39
0.60711133 -0.10481847 1.1759694 3.1361088e-39
0.60711133 -0.10481847 1.1759694 2.9517189e-39
0.60711133 -0.10481847 1.1759694 2.8598834e-39
0.60711133 -0.10481847 1.1759694 2.9524378e-39
0.60711133 -0.10481847 1.1759694 2.9520762e-39
0.60711133 -0.10481847 1.1759694 3.0435558e-39
0.50108099 -0.10695694 1.2572054 1.5676971e-39
0.50517678 -0.10674423 1.2547052 1.5680586e-39
0.51436073 -0.10760018 1.2647662 1.6598969e-39
0.5255239 -0.099061012 1.1643941 1.5676985e-39
0.53344935 -0.09965878 1.1714205 1.5676985e-39
0.55029422 -0.10189759 1.1977363 1.6595354e-39
0.55524307 -0.10191371 1.1979258 1.6598955e-39
0.55860233 -0.10164031 1.1947122 1.7520925e-39
0.56559318 -0.10202672 1.199254 1.8442881e-39
0.5668686 -0.10138433 1.1917032 1.7520925e-39
0.56928575 -0.10095528 1.1866601 1.4758658e-39
0.57473242 -0.10106616 1.1879634 1.4755028e-39
0.57873648 -0.10092364 1.1862881 1.291113e-39
0.58272928 -0.10078152 1.1846175 1.660257e-39
0.5874452 -0.10076575 1.1844323 2.6754908e-39
0.59178931 -0.10068699 1.1835065 3.5048941e-39
0.59454787 -0.1003419 1.1794502 3.41306e-39
0.599989 -0.10045145 1.1807379 3.5974513e-39
0.60810041 -0.10100278 1.1872183 3.5974527e-39
0.60626382 -0.099906109 1.1743277 3.5059787e-39
0.60626382 -0.099906109 1.1743277 3.6896497e-39
0.60626382 -0.099906109 1.1743277 3.6896469e-39
0.60626382 -0.099906109 1.1743277 3.5978086e-39
0.60626382 -0.099906109 1.1743277 3.8740381e-39
0.60626382 -0.099906109 1.1743277 3.7822012e-39
0.60626382 -0.099906109 1.1743277 3.6896441e-39
0.60626382 -0.099906109 1.1743277 3.6896441e-39
0.60626382 -0.099906109 1.1743277 3.7811222e-39
0.50033325 -0.10170254 1.2553293 1.5676985e-39
0.51375991 -0.10234741 1.263289 1.7517296e-39
0.50071937 -0.092374705 1.1401944 1.6591766e-39
0.51119792 -0.093444243 1.1533959 1.6595354e-39
0.51880342 -0.093973957 1.1599343 1.5680586e-39
0.52690154 -0.09458258 1.1674465 1.5676999e-39
0.53518832 -0.095213912 1.1752392 1.6595354e-39
0.55055553 -0.097082622 1.198305 1.6595354e-39
0.55524307 -0.097051904 1.1979258 1.6602584e-39
0.55851424 -0.096776277 1.1945236 1.8442881e-39
0.56559318 -0.097159512 1.199254 1.8442867e-39
0.5668686 -0.096547775 1.1917032 1.6606144e-39
0.56955355 -0.096184418 1.1872183 1.8446469e-39
0.57491285 -0.096275002 1.1883364 1.56806e-39
0.5788272 -0.09612412 1.1864741 1.291113e-39
0.58282048 -0.095988736 1.1848029 1.6606144e-39
0.58762908 -0.095988736 1.1848029 2.4914582e-39
0.592067 -0.095928684 1.1840618 3.3205028e-39
0.59454787 -0.095555075 1.1794502 3.5048969e-39
0.60017622 -0.095689237 1.1811062 3.5056158e-39
0.60857755 -0.096259892 1.1881498 3.5981701e-39
0.60645199 -0.095169589 1.1746922 3.5059745e-39
0.60645199 -0.095169589 1.1746922 3.5059759e-39
0.60645199 -0.095169589 1.1746922 3.6896497e-39
0.60645199 -0.095169589 1.1746922 3.5974541e-39
0.60645199 -0.095169589 1.1746922 3.6896511e-39
0.60645199 -0.095169589 1.1746922 3.7818425e-39
0.60645199 -0.095169589 1.1746922 3.7814824e-39
0.60645199 -0.095169589 1.1746922 3.5978086e-39
0.60645199 -0.095169589 1.1746922 3.5056116e-39
0.51307499 -0.097090714 1.2616049 1.6598927e-39
0.50117218 -0.087826557 1.1412256 1.7513708e-39
0.51252532 -0.088993639 1.1563908 1.6595354e-39
0.52394086 -0.090150297 1.1714205 1.6598969e-39
0.53041857 -0.090444177 1.1752392 1.6598983e-39
0.54055864 -0.091351733 1.1870321 1.6598969e-39
0.55221617 -0.092497438 1.2019194 1.7520911e-39
0.55665237 -0.092424072 1.2009661 1.7524512e-39
0.55948526 -0.092088096 1.1966004 1.9368425e-39
0.56613123 -0.092380114 1.2003949 2.0290381e-39
0.56740451 -0.091797918 1.1928298 1.8450056e-39
0.57026899 -0.091480821 1.1887095 1.8446469e-39
0.57536441 -0.091523938 1.1892697 1.6598955e-39
0.57928109 -0.091380388 1.1874044 1.2914731e-39
0.58336824 -0.09126588 1.1859164 1.5684229e-39
0.58836567 -0.091294482 1.1862881 2.6754908e-39
0.59271586 -0.091223009 1.1853595 3.2286673e-39
0.59510416 -0.09085317 1.1805537 3.4134187e-39
0.60045725 -0.090938248 1.1816592 3.5056144e-39
0.60905546 -0.091509558 1.1890829 3.5056172e-39
0.60682857 -0.090458214 1.1754216 3.6892896e-39
0.60682857 -0.090458214 1.1754216 3.59781e-39
0.60682857 -0.090458214 1.1754216 3.5056144e-39
0.60682857 -0.090458214 1.1754216 3.5056158e-39
0.60682857 -0.090458214 1.1754216 3.6900084e-39
0.60682857 -0.090458214 1.1754216 3.5981715e-39
0.60682857 -0.090458214 1.1754216 3.690007e-39
0.60682857 -0.090458214 1.1754216 3.5059745e-39
0.60682857 -0.090458214 1.1754216 3.5059745e-39
0.51188082 -0.091756396 1.2586684 1.5680586e-39
0.5034489 -0.08357279 1.1464099 1.7517324e-39
0.51330936 -0.084429361 1.1581599 1.8439266e-39
0.52313143 -0.085264131 1.1696109 1.7520925e-39
0.53041857 -0.085674435 1.1752392 1.660257e-39
0.54183292 -0.086738132 1.1898304 1.6606158e-39
0.55388689 -0.087884508 1.2055558 1.7524512e-39
0.55727112 -0.087647244 1.2023013 1.9372012e-39
0.55983919 -0.087286845 1.1973574 2.0293983e-39
0.566221 -0.087522157 1.2005852 2.1212366e-39
0.56767279 -0.086997904 1.1933938 2.0293997e-39
0.57071698 -0.086724497 1.1896434 1.9372026e-39
0.57599777 -0.086792693 1.1905788 1.6602556e-39
0.57973576 -0.086629212 1.1883364 1.2918318e-39
0.58364254 -0.086493447 1.1864741 1.5687817e-39
0.58845788 -0.086493447 1.1864741 2.5832965e-39
0.59262311 -0.086398669 1.1851739 3.2286673e-39
0.59464055 -0.08599481 1.179634 3.4134187e-39
0.60017622 -0.086102135 1.1811062 3.5056144e-39
0.60876864 -0.086642809 1.1885229 3.5048969e-39
0.60645199 -0.085634552 1.1746922 3.5974513e-39
0.60645199 -0.085634552 1.1746922 3.5056158e-39
0.60645199 -0.085634552 1.1746922 3.5974513e-39
0.60645199 -0.085634552 1.1746922 3.5978128e-39
0.60645199 -0.085634552 1.1746922 3.5059773e-39
0.60645199 -0.085634552 1.1746922 3.5981715e-39
0.60645199 -0.085634552 1.1746922 3.5978128e-39
0.5104382 -0.086403854 1.2551211 1.6598955e-39
0.50147456 -0.078610569 1.1419141 1.8439294e-39
0.51330936 -0.079728939 1.1581599 1.7524512e-39
0.52288908 -0.080479935 1.1690689 1.7524512e-39
0.53389943 -0.081435636 1.1829517 1.8442895e-39
0.54526067 -0.082427338 1.1973574 1.9368467e-39
0.56040114 -0.08396779 1.2197343 1.937204e-39
0.55833513 -0.082925707 1.2045968 2.0293997e-39
0.56045961 -0.082518689 1.1986845 2.2134322e-39
0.56658041 -0.082702011 1.2013474 2.2134322e-39
0.56785184 -0.082180396 1.1937702 2.1215953e-39
0.57089645 -0.081922047 1.1900175 1.9372026e-39
0.57626963 -0.081999376 1.1911408 1.7520925e-39
0.58019108 -0.081870571 1.1892697 1.3836673e-39
0.58428347 -0.081767812 1.187777 1.5691404e-39
0.58901173 -0.08175499 1.1875907 2.4914596e-39
0.59308732 -0.081652522 1.1861023 3.2286673e-39
0.59510416 -0.081270553 1.1805537 3.3212245e-39
0.599989 -0.081283227 1.1807379 3.4134187e-39
0.60790974 -0.081703722 1.186846 3.4134173e-39
0.60523117 -0.080704249 1.1723275 3.5970897e-39
0.60523117 -0.080704249 1.1723275 3.5974499e-39
0.60523117 -0.080704249 1.1723275 3.5974499e-39
0.60523117 -0.080704249 1.1723275 3.5974513e-39
0.60523117 -0.080704249 1.1723275 3.59781e-39
0.60523117 -0.080704249 1.1723275 3.5056158e-39
0.60523117 -0.080704249 1.1723275 3.5052584e-39
0.60523117 -0.080704249 1.1723275 3.5974527e-39
0.60523117 -0.080704249 1.1723275 3.6892882e-39
0.60523117 -0.080704249 1.1723275 3.5974513e-39
0.51077694 -0.081363872 1.255954 1.6606129e-39
0.50112456 -0.075316556 1.1626061 1.7528114e-39
0.50790966 -0.074925356 1.1565675 1.8446455e-39
0.52015239 -0.076028742 1.1735996 1.8446469e-39
0.52703965 -0.076336406 1.1783488 2.0290395e-39
0.53215331 -0.076383956 1.1790829 2.0286794e-39
0.5438844 -0.077372044 1.1943352 2.1205163e-39
0.56614745 -0.079827704 1.2322414 2.2130721e-39
0.55886865 -0.078111388 1.2057478 2.2134322e-39
0.56090367 -0.077715322 1.1996341 2.3063453e-39
0.56694025 -0.077875741 1.2021103 2.2141497e-39
0.56794137 -0.077347644 1.1939585 2.2137909e-39
0.57071698 -0.077068105 1.1896434 2.120875e-39
0.57617897 -0.077152967 1.1909534 1.8442853e-39
0.58000886 -0.077019691 1.1888962 1.4755042e-39
0.5843752 -0.076959267 1.1879634 1.6606158e-39
0.58919656 -0.076959267 1.1879634 2.5832951e-39
0.59355223 -0.076898932 1.1870321 3.320863e-39
0.59547555 -0.076526977 1.1812905 3.4130586e-39
0.60017622 -0.076515041 1.1811062 3.321942e-39
0.60810041 -0.076910995 1.1872183 3.3215818e-39
0.60598183 -0.076040529 1.1737815 3.5056116e-39
0.60598183 -0.076040529 1.1737815 3.6896441e-39
0.60598183 -0.076040529 1.1737815 3.6896455e-39
0.60598183 -0.076040529 1.1737815 3.6896469e-39
0.60598183 -0.076040529 1.1737815 3.5978114e-39
0.60598183 -0.076040529 1.1737815 3.5974527e-39
0.60598183 -0.076040529 1.1737815 3.5970953e-39
0.60598183 -0.076040529 1.1737815 3.5978086e-39
0.60598183 -0.076040529 1.1737815 3.5974485e-39
0.60598183 -0.076040529 1.1737815 3.5056158e-39
0.50724268 -0.07573884 1.2472637 1.6606144e-39
0.50242406 -0.071453951 1.1767005 1.937204e-39
0.50878125 -0.071676761 1.1803696 2.0290395e-39
0.51469529 -0.071833551 1.1829517 2.120875e-39
0.52104318 -0.072047442 1.1864741 2.0290367e-39
0.52536452 -0.071979761 1.1853595 1.9375614e-39
0.53200781 -0.072228551 1.1894566 2.0293983e-39
0.53590912 -0.07210394 1.1874044 2.1219526e-39
0.54319882 -0.07243339 1.1928298 2.121954e-39
0.55468184 -0.073311232 1.207286 2.3063467e-39
0.558424 -0.073159568 1.2047884 2.3059866e-39
0.56028223 -0.072765864 1.198305 2.3063453e-39
0.56640065 -0.072927468 1.2009661 2.3985395e-39
0.56776232 -0.072479069 1.1935821 2.3063453e-39
0.57053769 -0.072217211 1.1892697 2.2134308e-39
0.57599777 -0.072296701 1.1905788 1.8446469e-39
0.58000886 -0.072194524 1.1888962 1.4755056e-39
0.58428347 -0.072126567 1.187777 1.5684215e-39
0.58919656 -0.072137885 1.1879634 2.5829364e-39
0.59355223 -0.072081335 1.1870321 3.3205056e-39
0.59538269 -0.071721487 1.1811062 3.3208644e-39
0.59989548 -0.071687937 1.1805537 3.4137789e-39
0.60752881 -0.072024867 1.1861023 3.3215818e-39
0.60579401 -0.071254611 1.1734177 3.597447e-39
0.60579401 -0.071254611 1.1734177 3.5970911e-39
0.60579401 -0.071254611 1.1734177 3.5974527e-39
0.60579401 -0.071254611 1.1734177 3.5978128e-39
0.60579401 -0.071254611 1.1734177 3.6896483e-39
0.60579401 -0.071254611 1.1734177 3.5056158e-39
0.60579401 -0.071254611 1.1734177 3.5974541e-39
0.60579401 -0.071254611 1.1734177 3.7814852e-39
0.60579401 -0.071254611 1.1734177 3.6896469e-39
0.60579401 -0.071254611 1.1734177 3.5974485e-39
0.60579401 -0.071254611 1.1734177 3.5981673e-39
0.50113332 -0.069825538 1.2322414 1.845007e-39
0.50715351 -0.067305945 1.187777 2.0293983e-39
0.51553291 -0.067773789 1.1960332 2.0293997e-39
0.52427977 -0.068280771 1.2049803 2.0294025e-39
0.53136909 -0.068564504 1.2099873 2.1215967e-39
0.53363597 -0.068226479 1.204022 2.1219554e-39
0.53998244 -0.068411432 1.207286 2.0301185e-39
0.54297733 -0.068172269 1.2030654 2.2141483e-39
0.54716444 -0.068085715 1.201538 2.3063467e-39
0.56148666 -0.069250703 1.2220969 2.398185e-39
0.56056494 -0.06853164 1.2094074 2.398185e-39
