# .PCD v0.7 - Point Cloud Data file format
VERSION 0.7
FIELDS x y z rgb
SIZE 4 4 4 4
TYPE F F F F
COUNT 1 1 1 1
WIDTH 1006
HEIGHT 1
VIEWPOINT 0 0 0 1 0 0 0
POINTS 1006
DATA ascii
-0.36558288 -0.88581288 1.966976 6.4602788e-39
-0.35769281 -0.88604307 1.9674872 5.2707446e-39
-0.69117296 -0.86568463 1.9397619 2.6834992e-39
-0.68242615 -0.86457705 1.9372802 2.8678932e-39
-0.67439109 -0.86435586 1.9367845 2.8678974e-39
-0.66499954 -0.86237037 1.9323356 2.8678974e-39
-0.65515053 -0.85973716 1.9264354 2.9600931e-39
-0.64766163 -0.86017489 1.9274162 2.8686163e-39
-0.63951355 -0.85973716 1.9264354 2.9604504e-39
-0.63934112 -0.87014347 1.9497529 3.0526474e-39
-0.63404059 -0.87374377 1.9578202 3.1444829e-39
-0.6260947 -0.87374377 1.9578202 3.1448403e-39
-0.62526327 -0.88379991 1.9803534 3.1448403e-39
-0.61965728 -0.88728124 1.9881541 3.1448431e-39
-0.59591985 -0.88798082 1.9897217 3.145206e-39
-0.58127552 -0.87805796 1.9674872 3.1459291e-39
-0.57448483 -0.87988728 1.9715861 3.1455717e-39
-0.56281888 -0.87419587 1.9588333 3.1459277e-39
-0.55087805 -0.8679083 1.9447446 3.3299574e-39
-0.54354376 -0.868801 1.9467449 3.2374002e-39
-0.42712352 -0.88961744 1.9933888 3.2395736e-39
-0.41672912 -0.88472557 1.9824276 3.5154487e-39
-0.408149 -0.88356876 1.9798355 3.2395834e-39
-0.39959133 -0.882415 1.9772501 3.4236146e-39
-0.39085206 -0.88080478 1.973642 3.4236132e-39
-0.38224411 -0.87942922 1.9705598 3.6965987e-39
-0.37366301 -0.87805796 1.9674872 8.4853288e-39
-0.36558288 -0.87782985 1.966976 1.4113906e-38
-0.35741416 -0.87737393 1.9659545 2.9636902e-39
-0.69205952 -0.85891235 1.94225 2.6831446e-39
-0.68312538 -0.85759234 1.939265 2.6842208e-39
-0.67508191 -0.8573727 1.9387684 2.8682506e-39
-0.66601944 -0.85583854 1.9352993 2.7760549e-39
-0.65732485 -0.8547461 1.9328289 2.8679002e-39
-0.64782655 -0.85256952 1.927907 3.0522915e-39
-0.63902575 -0.85126883 1.9249659 2.7764165e-39
-0.63411534 -0.85518271 1.9338163 2.9604476e-39
-0.63289493 -0.86423343 1.9542826 2.960449e-39
-0.62447983 -0.86356473 1.9527704 3.1444829e-39
-0.62641025 -0.87736911 1.983986 2.9604504e-39
-0.61916947 -0.87852019 1.9865891 3.0530062e-39
-0.5843125 -0.87461871 1.9777666 3.0526572e-39
-0.57643628 -0.87484723 1.9782834 3.2374072e-39
-0.56648308 -0.87188554 1.9715861 2.961535e-39
-0.55544376 -0.86714333 1.9608626 3.0537278e-39
-0.54876471 -0.86916935 1.9654441 3.0530062e-39
-0.54804391 -0.88083148 1.9918156 3.0526502e-39
-0.53713381 -0.876221 1.9813899 3.053732e-39
-0.5337016 -0.88385439 1.9986513 3.0533649e-39
-0.51365715 -0.86378753 1.9532743 3.145199e-39
-0.50494808 -0.86245245 1.9502553 3.2370401e-39
-0.45984763 -0.88222408 1.9949646 3.3303259e-39
-0.43567258 -0.8824566 1.9954904 3.3310532e-39
-0.42577827 -0.87875074 1.9871105 3.238496e-39
-0.41596666 -0.87507588 1.9788005 3.1466619e-39
-0.40772253 -0.87461871 1.9777666 3.2388632e-39
-0.39969572 -0.87461871 1.9777666 3.3307015e-39
-0.39034328 -0.8716585 1.9710728 3.5147298e-39
-0.38184655 -0.8705253 1.9685104 5.6341279e-39
-0.37327498 -0.86916935 1.9654441 1.4214019e-38
-0.36529818 -0.86916935 1.9654441 7.4812298e-39
-0.35676566 -0.86781764 1.9623874 3.1434193e-39
-0.69241482 -0.8514666 1.9432471 2.6835062e-39
-0.68330038 -0.84993947 1.9397619 2.7764207e-39
-0.67508191 -0.84950417 1.9387684 2.7760577e-39
-0.66636014 -0.84841782 1.9362892 2.7756962e-39
-0.65782869 -0.84755075 1.9343103 2.8678988e-39
-0.64815664 -0.8451755 1.9288894 2.9604574e-39
-0.63902575 -0.84345633 1.9249659 2.8682562e-39
-0.63025171 -0.84217155 1.9220337 3.0522901e-39
-0.62996787 -0.85234165 1.9452443 2.9600917e-39
-0.62431878 -0.85541868 1.9522668 2.9604504e-39
-0.62493634 -0.86727154 1.9793179 2.8682562e-39
-0.61658084 -0.86681831 1.9782834 2.8686163e-39
-0.58248651 -0.86388379 1.9715861 3.2366842e-39
-0.57643628 -0.86681831 1.9782834 2.8689792e-39
-0.56471831 -0.86119258 1.9654441 2.9608147e-39
-0.55286628 -0.8551982 1.9517635 3.1448501e-39
-0.54564834 -0.85630196 1.9542826 3.1452074e-39
-0.54460526 -0.86727154 1.9793179 2.9611735e-39
-0.5344761 -0.86388379 1.9715861 2.8697023e-39
-0.5337016 -0.87574279 1.9986513 2.9608133e-39
-0.51365715 -0.85586011 1.9532743 3.1455619e-39
-0.51047093 -0.86388379 1.9715861 3.2374016e-39
-0.43452728 -0.87205935 1.9902446 3.238503e-39
-0.42510879 -0.869317 1.983986 3.3306945e-39
-0.41564077 -0.86636555 1.9772501 3.238859e-39
-0.40740326 -0.86591327 1.9762179 3.4225342e-39
-0.39959133 -0.86636555 1.9772501 3.4225328e-39
-0.39003864 -0.86298484 1.9695345 3.6076387e-39
-0.38154894 -0.86186379 1.966976 9.8783358e-39
-0.3729845 -0.86052239 1.9639146 1.2919331e-38
-0.36482462 -0.86007619 1.9628962 1.9444964e-39
-0.35658079 -0.85940772 1.9613707 3.236701e-39
-0.69277042 -0.84401309 1.9442452 2.4998338e-39
-0.68400139 -0.84293079 1.941752 2.5913091e-39
-0.67542785 -0.84206688 1.9397619 2.7753403e-39
-0.66670114 -0.84098953 1.9372802 2.9590141e-39
-0.6583333 -0.84034443 1.9357941 2.7753431e-39
-0.64931464 -0.83884305 1.9323356 2.8679016e-39
-0.63935083 -0.83606899 1.9259453 2.5913091e-39
-0.63314497 -0.83820122 1.9308572 2.9600959e-39
-0.62674713 -0.84012961 1.9352993 2.8679002e-39
-0.62788075 -0.85233068 1.9634053 3.0522873e-39
-0.62723213 -0.86239493 1.9865891 2.8682576e-39
-0.61933202 -0.86262131 1.9871105 2.8678988e-39
-0.57976913 -0.86375481 1.9897217 2.8686205e-39
-0.56648308 -0.85588205 1.9715861 2.8682618e-39
-0.55003035 -0.84293079 1.941752 2.960456e-39
-0.54298526 -0.84422994 1.9447446 2.8686205e-39
-0.54247785 -0.85588205 1.9715861 2.960456e-39
-0.53996009 -0.86466378 1.9918156 2.9608175e-39
-0.52200711 -0.86171657 1.9850265 3.1448487e-39
-0.45258582 -0.86763126 1.9986513 3.1455801e-39
-0.44272113 -0.86420906 1.9907681 3.1463032e-39
-0.43316084 -0.86126494 1.983986 3.1455857e-39
-0.42421943 -0.85946316 1.9798355 3.3303357e-39
-0.41520703 -0.85744512 1.9751867 3.2381401e-39
-0.4066602 -0.85632807 1.9726136 3.3299784e-39
-0.39927849 -0.85766888 1.9757022 3.421451e-39
-0.38973448 -0.8543247 1.9679986 6.825467e-39
-0.38184655 -0.85454684 1.9685104 1.6324805e-38
-0.37279108 -0.85210967 1.9628962 3.7927082e-39
-0.36454108 -0.8514474 1.9613707 2.1295981e-39
-0.35621166 -0.85056603 1.9593402 3.3296183e-39
-0.6933046 -0.83676702 1.9457443 5.353927e-39
-0.68435246 -0.83547866 1.9427484 2.6831488e-39
-0.6757741 -0.83462203 1.9407564 2.86718e-39
-0.66687179 -0.83334029 1.937776 2.8675387e-39
-0.65867013 -0.83291388 1.9367845 2.8675359e-39
-0.65014434 -0.83206248 1.9348047 2.867896e-39
-0.64065462 -0.82994151 1.9298728 2.6835076e-39
-0.63233864 -0.82930732 1.928398 2.7757032e-39
-0.62387657 -0.8284632 1.9264354 2.7767794e-39
-0.62159389 -0.8359077 1.943746 2.7764179e-39
-0.62789112 -0.85522997 1.9886763 2.9604518e-39
-0.61545509 -0.84920722 1.9746716 2.9600931e-39
-0.5247733 -0.83248794 1.9357941 2.8682604e-39
-0.52647442 -0.8478803 1.9715861 2.8686205e-39
-0.51847267 -0.8478803 1.9715861 3.0530132e-39
-0.51625186 -0.85748231 1.9939138 3.1444899e-39
-0.46069741 -0.85951966 1.9986513 3.2370499e-39
-0.45163202 -0.85770822 1.9944391 3.1455801e-39
-0.44156006 -0.85388422 1.9855471 3.1452256e-39
-0.43259403 -0.85209644 1.9813899 3.1452284e-39
-0.42366549 -0.85031611 1.9772501 3.2377842e-39
-0.4148823 -0.84876448 1.973642 3.0541076e-39
-0.40581432 -0.84655756 1.9685104 3.3296169e-39
-0.3987582 -0.84854323 1.9731276 4.890449e-39
-0.3898358 -0.84655756 1.9685104 1.3564345e-38
-0.38214466 -0.84721845 1.970047 8.9588654e-39
-0.37250134 -0.84348714 1.9613707 2.4998128e-39
-0.36435229 -0.84305036 1.9603549 2.6831446e-39
-0.35602739 -0.84217805 1.9583266 2.9608231e-39
-0.69348282 -0.8290832 1.9462444 1.042755e-38
-0.68505561 -0.8284443 1.9447446 2.8682548e-39
-0.67681509 -0.82801896 1.943746 2.8671772e-39
-0.66755527 -0.82632172 1.9397619 2.7753431e-39
-0.65934479 -0.82589853 1.9387684 2.7753403e-39
-0.65097618 -0.82526451 1.9372802 2.6834992e-39
-0.6422919 -0.82420999 1.9348047 2.8675359e-39
-0.63427734 -0.8239994 1.9343103 2.6835076e-39
-0.62514913 -0.82231867 1.9303648 2.5920266e-39
-0.6173147 -0.82231867 1.9303648 2.5920266e-39
-0.62168568 -0.83878642 1.9690223 2.7757018e-39
-0.61722594 -0.84361333 1.9803534 2.8675401e-39
-0.61303717 -0.84894282 1.9928641 2.6838649e-39
-0.45044538 -0.84738147 1.9891988 3.1455801e-39
-0.44109732 -0.84493941 1.9834663 3.1463032e-39
-0.43236771 -0.84361333 1.9803534 3.2381415e-39
-0.42366549 -0.84229141 1.9772501 3.2377884e-39
-0.41477418 -0.84053528 1.9731276 2.961556e-39
-0.40581432 -0.83856833 1.9685104 3.2374184e-39
-0.39844665 -0.83987856 1.9715861 7.8529018e-39
-0.39024168 -0.83944136 1.9705598 1.3475375e-38
-0.38214466 -0.83922297 1.970047 3.0544425e-39
-0.37240487 -0.83531046 1.9608626 2.7757032e-39
-0.36397532 -0.83423018 1.9583266 2.868259e-39
-0.35602739 -0.83423018 1.9583266 3.6951246e-39
-0.69312644 -0.82076234 1.9452443 1.5044108e-38
-0.68523163 -0.82076234 1.9452443 6.7429501e-39
-0.67646772 -0.8197093 1.9427484 2.4994652e-39
-0.66772634 -0.81865895 1.9402591 2.7753389e-39
-0.65917599 -0.81782055 1.9382721 2.7753417e-39
-0.65080965 -0.81719291 1.9367845 2.3150726e-39
-0.6422919 -0.81635755 1.9348047 2.5909448e-39
-0.63443941 -0.81635755 1.9348047 2.7753417e-39
-0.62387657 -0.81282622 1.9264354 2.7757018e-39
-0.6173147 -0.81448424 1.9303648 2.7760633e-39
-0.61041409 -0.81573218 1.9333224 2.775706e-39
-0.61210245 -0.82863998 1.9639146 2.8678988e-39
-0.60649174 -0.83187687 1.9715861 2.8678932e-39
-0.45996884 -0.84196287 1.9954904 2.9615392e-39
-0.44973639 -0.83798718 1.9860679 2.9615448e-39
-0.4407509 -0.83623224 1.9819086 3.1459389e-39
-0.43214166 -0.8351391 1.9793179 3.0540992e-39
-0.42333379 -0.83361357 1.9757022 3.1455829e-39
-0.41445014 -0.83187687 1.9715861 2.9619176e-39
-0.40539268 -0.82971615 1.9664651 4.8951251e-39
-0.39855045 -0.83209354 1.9720997 1.3747666e-38
-0.39054662 -0.83209354 1.9720997 5.0816659e-39
-0.38184655 -0.8305791 1.9685104 2.9586581e-39
-0.37221208 -0.82692391 1.9598475 3.0530188e-39
-0.36369309 -0.82564151 1.9568082 2.6845908e-39
-0.35575134 -0.82564151 1.9568082 4.4290799e-39
-0.6933046 -0.81307644 1.9457443 1.1888256e-38
-0.68505561 -0.81265873 1.9447446 1.5215217e-38
-0.6769889 -0.81245005 1.9442452 3.699442e-39
-0.66841155 -0.81161636 1.94225 2.6835006e-39
-0.65951371 -0.81036896 1.939265 2.7753431e-39
-0.65080965 -0.80933243 1.9367845 2.4994666e-39
-0.64245605 -0.80871177 1.9352993 2.683139e-39
-0.6347639 -0.80891854 1.9357941 2.7749829e-39
-0.62514913 -0.8066498 1.9303648 2.8671814e-39
-0.61637175 -0.80541766 1.9274162 2.7753473e-39
-0.60963571 -0.8068555 1.9308572 2.6838719e-39
-0.6041103 -0.80995405 1.9382721 2.8679002e-39
-0.60586065 -0.82301784 1.9695345 2.867896e-39
-0.60304421 -0.83014446 1.9865891 2.7753431e-39
-0.59717536 -0.83320528 1.9939138 2.9593784e-39
-0.48939702 -0.82883954 1.9834663 3.1444941e-39
-0.45839816 -0.83101666 1.9886763 2.8697023e-39
-0.44891205 -0.82840544 1.9824276 3.0530174e-39
-0.44028988 -0.8273223 1.9798355 3.1452214e-39
-0.43180299 -0.8264578 1.9777666 2.9608245e-39
-0.42256191 -0.82408971 1.9720997 2.8689904e-39
-0.41401887 -0.82301784 1.9695345 4.0621302e-39
-0.40518221 -0.82130855 1.9654441 1.1986973e-38
-0.39865428 -0.82430446 1.9726136 9.6914222e-39
-0.39054662 -0.82408971 1.9720997 3.1437514e-39
-0.38184655 -0.82258981 1.9685104 2.8679044e-39
-0.37211573 -0.81875789 1.9593402 3.0530202e-39
-0.36350518 -0.81727731 1.9557972 2.9611819e-39
-0.35556751 -0.81727731 1.9557972 3.3263476e-39
-0.69419664 -0.80621558 1.9482478 3.1397718e-39
-0.6854077 -0.8051796 1.9457443 1.2726298e-38
-0.67733681 -0.80497271 1.9452443 1.1252993e-38
-0.66875464 -0.80414623 1.9432471 2.77462e-39
-0.66035944 -0.80352753 1.941752 2.6827901e-39
-0.65130949 -0.80208749 1.9382721 2.6831474e-39
-0.64278471 -0.80126697 1.9362892 2.6831446e-39
-0.63525116 -0.80167705 1.9372802 2.683146e-39
-0.62610698 -0.80003929 1.9333224 2.6827887e-39
-0.61762965 -0.79922289 1.9313496 2.6827887e-39
-0.6091696 -0.79840821 1.9293809 2.5913119e-39
-0.60011572 -0.7967838 1.9254555 2.7753431e-39
-0.5967021 -0.80270404 1.9397619 2.7760591e-39
-0.59369713 -0.80933964 1.9557972 2.6838635e-39
-0.58515483 -0.80850422 1.9537783 2.86718e-39
-0.58846313 -0.82424462 1.9918156 2.7760633e-39
-0.55423218 -0.82143521 1.9850265 2.6842306e-39
-0.51584429 -0.82446152 1.9923397 2.9604546e-39
-0.50562936 -0.82100469 1.983986 3.0526502e-39
-0.49063438 -0.8095488 1.9563025 2.9608161e-39
-0.49081147 -0.82316178 1.9891988 3.053016e-39
-0.46683714 -0.82359457 1.9902446 2.8693422e-39
-0.45695779 -0.82035971 1.9824276 2.8682632e-39
-0.44797364 -0.81864482 1.9782834 2.9608217e-39
-0.43971494 -0.81821722 1.9772501 3.14522e-39
-0.43079016 -0.81651127 1.9731276 3.053023e-39
-0.42212209 -0.81523651 1.970047 3.3281721e-39
-0.41315901 -0.81333172 1.9654441 7.0155966e-39
-0.40507704 -0.81312066 1.964934 1.4854696e-38
-0.39823925 -0.8154487 1.9705598 3.8852569e-39
-0.39024168 -0.8154487 1.9705598 2.5920322e-39
-0.38164809 -0.81417722 1.9674872 3.0522971e-39
-0.37240487 -0.81143588 1.9608626 2.8686303e-39
-0.36341131 -0.80913061 1.955292 2.9608259e-39
-0.3553839 -0.80892169 1.9547871 2.7757046e-39
-0.69401807 -0.79810321 1.9477465 1.9426719e-39
-0.6854077 -0.79728276 1.9457443 4.3451323e-39
-0.67681509 -0.79646397 1.943746 1.458782e-38
-0.66892636 -0.79646397 1.943746 4.4424048e-39
-0.66019011 -0.79544288 1.941254 2.5913105e-39
-0.65130949 -0.79422098 1.9382721 2.5902329e-39
-0.64245605 -0.79300284 1.9352993 2.5905889e-39
-0.6347639 -0.79320562 1.9357941 2.5913077e-39
-0.6256277 -0.7915864 1.9318424 2.6827859e-39
-0.6173147 -0.79098094 1.9303648 2.6831432e-39
-0.60793018 -0.78896928 1.9254555 2.5913091e-39
-0.60072678 -0.78977269 1.9274162 2.6835034e-39
-0.59215057 -0.78876865 1.9249659 2.4994722e-39
-0.59155768 -0.79851407 1.9487492 2.4994722e-39
-0.58440077 -0.79954308 1.9512606 2.6835034e-39
-0.57901847 -0.80306166 1.9598475 2.8679016e-39
-0.58175677 -0.81809789 1.9965429 2.8686205e-39
-0.57289833 -0.8170206 1.9939138 2.7760647e-39
-0.56125838 -0.81188881 1.9813899 2.868259e-39
-0.55803633 -0.81896174 1.9986513 2.7764221e-39
-0.50936687 -0.81896174 1.9986513 2.960456e-39
-0.49849173 -0.81444663 1.9876322 2.9600987e-39
-0.47629187 -0.81788218 1.9960165 3.0533761e-39
-0.46597964 -0.8140192 1.9865891 2.7771465e-39
-0.45647967 -0.81146407 1.9803534 2.8686233e-39
-0.44773966 -0.81019253 1.9772501 2.9608175e-39
-0.43937069 -0.80955821 1.9757022 2.9608231e-39
-0.43000567 -0.80703098 1.9695345 2.8693492e-39
-0.42146406 -0.80598265 1.966976 3.6076205e-39
-0.41315901 -0.80535489 1.9654441 1.2186461e-38
-0.40507704 -0.80514592 1.964934 5.639862e-39
-0.39792854 -0.80682111 1.9690223 2.498389e-39
-0.39003864 -0.80703098 1.9695345 2.7764263e-39
-0.38204524 -0.80703098 1.9695345 2.9604644e-39
-0.37279108 -0.80431092 1.9628962 2.9611875e-39
-0.36350518 -0.80140203 1.9557972 2.9608273e-39
-0.35547569 -0.80119503 1.955292 2.8686261e-39
-0.69419664 -0.79040158 1.9482478 2.2192644e-39
-0.68505561 -0.78898036 1.9447446 1.6664438e-39
-0.67681509 -0.78857523 1.943746 7.8438901e-39
-0.66858304 -0.78817052 1.9427484 1.4945086e-38
-0.66035944 -0.78776622 1.941752 4.4359182e-39
-0.65164316 -0.78675729 1.939265 2.6827859e-39
-0.64262033 -0.78534913 1.9357941 2.77462e-39
-0.6349262 -0.78555 1.9362892 2.5909476e-39
-0.62594712 -0.78414613 1.9328289 2.6824216e-39
-0.61778724 -0.783746 1.9318424 2.4987478e-39
-0.6088593 -0.78234857 1.928398 2.5909476e-39
-0.60011572 -0.78115475 1.9254555 2.7753375e-39
-0.59381139 -0.7831465 1.9303648 2.5913063e-39
-0.58672494 -0.78414613 1.9328289 2.4994722e-39
-0.58545697 -0.79305458 1.9547871 2.683502e-39
-0.57871884 -0.79469609 1.9588333 2.7760633e-39
-0.58099067 -0.80892825 1.9939138 2.6838691e-39
-0.51584429 -0.80828959 1.9923397 2.7764263e-39
-0.50589454 -0.80532265 1.9850265 2.6842306e-39
-0.49249366 -0.80978131 1.9960165 2.8678988e-39
-0.47429118 -0.80637974 1.9876322 2.7771451e-39
-0.46463853 -0.80363697 1.9808714 2.8686219e-39
-0.45564538 -0.80195838 1.9767339 3.0530146e-39
-0.44703916 -0.8009128 1.9741566 2.8686261e-39
-0.43822709 -0.79945356 1.9705598 2.9608231e-39
-0.42955869 -0.79820698 1.9674872 3.235615e-39
-0.42069894 -0.79655099 1.9634053 8.4875163e-39
-0.41294461 -0.79696435 1.9644241 8.9535265e-39
-0.40455207 -0.79613805 1.9623874 2.9579281e-39
-0.39761829 -0.79820698 1.9674872 2.5916707e-39
-0.38963318 -0.79820698 1.9674872 2.7764291e-39
-0.38244319 -0.79986989 1.9715861 2.8689876e-39
-0.37288776 -0.79655099 1.9634053 3.053023e-39
-0.36350518 -0.79346436 1.9557972 3.0523027e-39
-0.3553839 -0.79305458 1.9547871 3.0522957e-39
-0.69473296 -0.78309911 1.9497529 2.4043759e-39
-0.68593657 -0.78209203 1.9472456 1.9430306e-39
-0.67751086 -0.78148901 1.9457443 3.321282e-39
-0.66909814 -0.78088695 1.9442452 1.4376826e-38
-0.66103762 -0.7806865 1.943746 1.2261739e-38
-0.65214425 -0.77948576 1.9407564 3.0519188e-39
-0.64344293 -0.77848792 1.9382721 2.7746186e-39
-0.63525116 -0.77808952 1.9372802 2.5905889e-39
-0.62642688 -0.77689672 1.9343103 2.5905833e-39
-0.61841846 -0.77669829 1.9338163 2.5905819e-39
-0.60979122 -0.7757076 1.9313496 2.5909462e-39
-0.60149246 -0.77511442 1.9298728 2.6831446e-39
-0.59366 -0.77511442 1.9298728 2.4987492e-39
-0.58418953 -0.77294707 1.9244765 2.7753361e-39
-0.57991683 -0.77769154 1.9362892 2.7749787e-39
-0.57485175 -0.78148901 1.9457443 2.6835076e-39
-0.57269514 -0.78940129 1.9654441 2.6838691e-39
-0.56648308 -0.79186821 1.9715861 2.6831474e-39
-0.55688608 -0.78960627 1.9659545 2.7753459e-39
-0.55774188 -0.802315 1.9975965 2.867903e-39
-0.52517408 -0.80210334 1.9970696 2.8675415e-39
-0.51233882 -0.79476577 1.9788005 2.8675415e-39
-0.50642562 -0.79810339 1.9871105 2.960456e-39
-0.49171582 -0.80041426 1.9928641 2.7760605e-39
-0.4821049 -0.79789394 1.9865891 2.7771423e-39
-0.47243074 -0.79518145 1.9798355 2.684588e-39
-0.46342599 -0.79352134 1.9757022 2.960456e-39
-0.45493269 -0.79269391 1.973642 2.9608161e-39
-0.44610855 -0.79125005 1.970047 2.8689792e-39
-0.43743011 -0.79001659 1.966976 3.2363268e-39
-0.42866749 -0.78858244 1.9634053 6.1800906e-39
-0.42048085 -0.78817362 1.9623874 1.392916e-38
-0.41262341 -0.788378 1.9628962 4.9898066e-39
-0.40413305 -0.78735727 1.9603549 2.4072752e-39
-0.39679337 -0.78858244 1.9634053 2.7764263e-39
-0.38953197 -0.79001659 1.966976 2.7767892e-39
-0.382842 -0.79269391 1.973642 2.6853125e-39
-0.37269446 -0.78817362 1.9623874 2.9608245e-39
-0.36341131 -0.7853238 1.955292 2.9601015e-39
-0.35510886 -0.78451335 1.9532743 2.8679002e-39
-0.69437534 -0.77478695 1.9487492 2.5891301e-39
-0.68558395 -0.77379107 1.9462444 2.3121761e-39
-0.67751086 -0.77359217 1.9457443 1.6675214e-39
-0.66909814 -0.77299619 1.9442452 4.24682e-39
-0.66086793 -0.7725994 1.9432471 1.7335693e-38
-0.65264618 -0.77220297 1.94225 8.9459384e-39
-0.64393753 -0.77121371 1.9397619 2.590942e-39
-0.63573921 -0.77081877 1.9387684 2.5905861e-39
-0.62658697 -0.76924282 1.9348047 2.5905847e-39
-0.61873454 -0.76924282 1.9348047 2.6824216e-39
-0.61025822 -0.76845729 1.9328289 2.5905861e-39
-0.60226005 -0.76826113 1.9323356 2.6831418e-39
-0.59426594 -0.76806509 1.9318424 2.4987492e-39
-0.58404106 -0.76494211 1.9239875 2.6824216e-39
-0.57593977 -0.76455349 1.9230101 2.7749745e-39
-0.57367229 -0.7720049 1.941752 2.7749787e-39
-0.57299262 -0.78183043 1.9664651 2.683509e-39
-0.57004583 -0.78879642 1.983986 2.683146e-39
-0.56037843 -0.78652918 1.9782834 2.4994722e-39
-0.52337933 -0.79128474 1.9902446 2.6835104e-39
-0.51047093 -0.78386647 1.9715861 2.8678988e-39
-0.50046259 -0.79337037 1.9954904 2.7749815e-39
-0.4904249 -0.79024607 1.9876322 2.7753445e-39
-0.48046595 -0.78714621 1.9798355 3.0519398e-39
-0.47144443 -0.78550291 1.9757022 2.7760689e-39
-0.46282211 -0.78447932 1.9731276 2.7760675e-39
-0.45434049 -0.78366238 1.9710728 2.8689792e-39
-0.44495073 -0.78122169 1.964934 2.9608175e-39
-0.43674928 -0.78081638 1.9639146 3.7898383e-39
-0.42833424 -0.78000706 1.9618789 1.2554142e-38
-0.42037189 -0.78000706 1.9618789 7.4855388e-39
-0.41198254 -0.77919936 1.9598475 2.4072626e-39
-0.4037149 -0.77859473 1.9583266 2.8675387e-39
-0.39607435 -0.77919936 1.9598475 2.7764249e-39
-0.38943079 -0.78183043 1.9664651 2.7767864e-39
-0.38314164 -0.78529799 1.9751867 2.7771465e-39
-0.37308127 -0.78101897 1.9644241 2.8686247e-39
-0.36369309 -0.777991 1.9568082 3.1448515e-39
-0.35529217 -0.7769869 1.9542826 2.9600945e-39
-0.69491196 -0.76747054 1.9502553 2.5894917e-39
-0.68593657 -0.76628613 1.9472456 2.4047361e-39
-0.67803365 -0.76628613 1.9472456 2.127066e-39
-0.669442 -0.76549858 1.9452443 1.9430306e-39
-0.66103762 -0.76490897 1.943746 5.1784845e-39
-0.65298122 -0.76471269 1.9432471 1.3935612e-38
-0.64426768 -0.76373249 1.9407564 4.9862039e-39
-0.63639104 -0.76373249 1.9407564 2.682053e-39
-0.62658697 -0.76139039 1.9348047 2.6824188e-39
-0.61841846 -0.76100141 1.9338163 2.6820628e-39
-0.60994679 -0.7602247 1.9318424 2.498389e-39
-0.60195279 -0.76003075 1.9313496 2.6831404e-39
-0.59396285 -0.75983691 1.9308572 2.4983904e-39
-0.58344799 -0.7563647 1.9220337 2.5905847e-39
-0.5760861 -0.7569412 1.9234986 2.6827775e-39
-0.57249767 -0.76255965 1.937776 2.5902245e-39
-0.57840103 -0.7811538 1.9850265 2.5909518e-39
-0.52310431 -0.78279573 1.9891988 2.7757032e-39
-0.51693261 -0.78568578 1.9965429 2.6838663e-39
-0.50909805 -0.78610039 1.9975965 2.6838691e-39
-0.5001989 -0.78485787 1.9944391 2.6835062e-39
-0.48862892 -0.77931482 1.9803534 2.7757032e-39
-0.47921276 -0.77707893 1.9746716 2.9601015e-39
-0.47058481 -0.77606684 1.9720997 2.7760661e-39
-0.46234012 -0.77566272 1.9710728 2.7760647e-39
-0.45351398 -0.7742517 1.9674872 2.7764249e-39
-0.44483528 -0.77304631 1.9644241 2.8682604e-39
-0.43618354 -0.77184469 1.9613707 7.6638526e-39
-0.42822325 -0.77184469 1.9613707 1.0615897e-38
-0.42004535 -0.77144498 1.9603549 3.1426724e-39
-0.4118759 -0.77104568 1.9593402 2.4065564e-39
-0.40319344 -0.76965141 1.9557972 2.7757032e-39
-0.39556235 -0.77024835 1.957314 2.7760633e-39
-0.38963318 -0.7742517 1.9674872 2.7764235e-39
-0.38304171 -0.77707893 1.9746716 2.7764277e-39
-0.37366301 -0.7742517 1.9674872 2.8682618e-39
-0.36435229 -0.77144498 1.9603549 2.7764263e-39
-0.35529217 -0.76905537 1.9542826 2.7760619e-39
-0.69491196 -0.75955534 1.9502553 2.4972974e-39
-0.6857602 -0.75818819 1.9467449 2.405099e-39
-0.67785931 -0.75818819 1.9467449 2.3125404e-39
-0.66926998 -0.75740916 1.9447446 2.0348703e-39
-0.66069835 -0.75663173 1.9427484 1.7575506e-39
-0.65264618 -0.7564376 1.94225 1.280732e-38
-0.64459813 -0.75624365 1.941752 1.2625097e-38
-0.63590205 -0.75527507 1.939265 3.1412179e-39
-0.62658697 -0.75353789 1.9348047 2.4976646e-39
-0.61810267 -0.7527684 1.9328289 2.4976702e-39
-0.60948026 -0.75180876 1.9303648 2.4980303e-39
-0.60149246 -0.75161707 1.9298728 2.4065535e-39
-0.59366 -0.75161707 1.9298728 2.4983918e-39
-0.58315188 -0.7481842 1.9210583 2.6824216e-39
-0.57520926 -0.74799436 1.920571 2.5902245e-39
-0.57118189 -0.75296062 1.9333224 2.6827817e-39
-0.56914902 -0.76073116 1.9532743 2.6831432e-39
-0.57244605 -0.77594578 1.9923397 2.5902231e-39
-0.52379245 -0.77574164 1.9918156 2.6835048e-39
-0.50842732 -0.77696806 1.9949646 2.4076382e-39
-0.49705631 -0.77188319 1.9819086 2.6838691e-39
-0.48722702 -0.76906466 1.9746716 2.6838663e-39
-0.47833943 -0.76766306 1.9710728 2.592035e-39
-0.4699727 -0.76706398 1.9695345 2.7757046e-39
-0.46161905 -0.76646578 1.9679986 2.8678988e-39
-0.45269048 -0.76487517 1.9639146 3.1434067e-39
-0.44402879 -0.7636866 1.9608626 5.5347296e-39
-0.43595764 -0.76348883 1.9603549 1.3279497e-38
-0.42800149 -0.76348883 1.9603549 5.9060148e-39
-0.41961074 -0.76269889 1.9583266 2.037048e-39
-0.41134363 -0.76210749 1.9568082 2.866817e-39
-0.40319344 -0.76171374 1.9557972 2.6835104e-39
-0.3951537 -0.76151699 1.955292 2.8675429e-39
-0.38932967 -0.76566964 1.9659545 2.8675415e-39
-0.38274223 -0.76846337 1.9731276 2.8682646e-39
-0.37463659 -0.7682631 1.9726136 2.8682632e-39
-0.36491925 -0.76467681 1.9634053 2.960456e-39
-0.3556594 -0.76191056 1.9563025 2.8682562e-39
-0.69544935 -0.75222152 1.9517635 2.497296e-39
-0.68593657 -0.75048023 1.9472456 2.4054577e-39
-0.67803365 -0.75048023 1.9472456 2.4054563e-39
-0.669442 -0.74970895 1.9452443 2.3118202e-39
-0.66103762 -0.7491315 1.943746 1.8504693e-39
-0.65281367 -0.74874705 1.9427484 4.2381992e-39
-0.64492899 -0.74874705 1.9427484 1.4176969e-38
-0.63688082 -0.74855494 1.94225 1.1326836e-38
-0.62754923 -0.74683064 1.937776 2.9561176e-39
-0.61873454 -0.74568546 1.9348047 2.4058263e-39
-0.60979122 -0.74435389 1.9313496 2.4061878e-39
-0.60210639 -0.74454379 1.9318424 2.4061878e-39
-0.59456939 -0.74492395 1.9328289 2.4061892e-39
-0.58463538 -0.74227101 1.9259453 2.4058305e-39
-0.57725942 -0.74283791 1.9274162 2.4983862e-39
-0.57118189 -0.74511421 1.9333224 2.498389e-39
-0.56666368 -0.74951637 1.9447446 2.6824202e-39
-0.56885326 -0.7630406 1.9798355 2.4065507e-39
-0.53145683 -0.76705235 1.9902446 2.7749815e-39
-0.51543736 -0.76725405 1.9907681 2.7753445e-39
-0.50735778 -0.76725405 1.9907681 2.4991107e-39
-0.4956291 -0.76164639 1.9762179 2.5913091e-39
-0.48633909 -0.7596634 1.9710728 2.5909504e-39
-0.47784179 -0.75887316 1.9690223 2.7749871e-39
-0.46960622 -0.75847864 1.9679986 2.7753445e-39
-0.46066108 -0.7569046 1.9639146 2.7753431e-39
-0.45222124 -0.75612003 1.9618789 3.8780767e-39
-0.44368404 -0.75514162 1.9593402 1.1993062e-38
-0.43595764 -0.75553268 1.9603549 9.7864709e-39
-0.42744809 -0.75455576 1.9578202 1.9473508e-39
-0.41939378 -0.75436074 1.957314 2.7749731e-39
-0.41081274 -0.75319237 1.9542826 2.86718e-39
-0.40308931 -0.7535814 1.955292 2.7757046e-39
-0.39505169 -0.75338686 1.9547871 2.7757004e-39
-0.38872403 -0.75651211 1.9628962 2.683146e-39
-0.38224411 -0.75946569 1.9705598 2.8678988e-39
-0.37610653 -0.76324016 1.9803534 2.8678988e-39
-0.36520335 -0.75729752 1.964934 2.7757018e-39
-0.35593534 -0.75455576 1.9578202 2.9597315e-39
-0.69598764 -0.74487633 1.9532743 2.4054605e-39
-0.68558395 -0.74219555 1.9462444 2.3132649e-39
-0.67785931 -0.74238634 1.9467449 2.4047403e-39
-0.66892636 -0.74124277 1.943746 2.496573e-39
-0.66052884 -0.74067229 1.94225 2.2196175e-39
-0.65247881 -0.74048233 1.941752 2.0348605e-39
-0.64443284 -0.74029243 1.941254 5.8959156e-39
-0.63655424 -0.74029243 1.941254 1.3812152e-38
-0.62787062 -0.7393446 1.9387684 5.9895756e-39
-0.61952615 -0.73877704 1.9372802 2.7724452e-39
-0.61010247 -0.73689139 1.9323356 2.6820544e-39
-0.60226005 -0.73689139 1.9323356 2.6816999e-39
-0.59487313 -0.73745608 1.9338163 2.4980261e-39
-0.58552909 -0.73557723 1.9288894 2.4976646e-39
-0.57858509 -0.7367034 1.9318424 2.4980261e-39
-0.57249767 -0.73896611 1.937776 2.49731e-39
-0.56695491 -0.74200475 1.9457443 2.5902217e-39
-0.56751758 -0.7532326 1.9751867 2.6827845e-39
-0.56584918 -0.76177853 1.9975965 2.5902273e-39
-0.52936941 -0.75599384 1.9824276 2.4061962e-39
-0.5150311 -0.7585761 1.9891988 2.6827831e-39
-0.50483561 -0.75540048 1.9808714 2.5909462e-39
-0.49446747 -0.75185955 1.9715861 2.5909476e-39
-0.48558056 -0.75049144 1.9679986 2.6831432e-39
-0.47734523 -0.75010145 1.966976 2.683146e-39
-0.46887493 -0.74932277 1.964934 2.7749829e-39
-0.46018359 -0.74815768 1.9618789 2.867173e-39
-0.45151922 -0.74699628 1.9588333 6.7447592e-39
-0.4434545 -0.74680305 1.9583266 1.1727237e-38
-0.43561926 -0.74699628 1.9588333 2.6845459e-39
-0.42700642 -0.7458384 1.9557972 2.3136334e-39
-0.41874424 -0.74526083 1.9542826 2.4991065e-39
-0.41049483 -0.74468416 1.9527704 2.4987576e-39
-0.40267333 -0.74487633 1.9532743 2.6831488e-39
-0.39474592 -0.74487633 1.9532743 2.5913119e-39
-0.38721812 -0.74564582 1.955292 2.7753431e-39
-0.38204524 -0.75107718 1.9695345 2.683502e-39
-0.37699401 -0.75698495 1.9850265 2.5913077e-39
-0.36615366 -0.75127262 1.970047 2.9593742e-39
-0.35621166 -0.74718958 1.9593402 2.9597343e-39
-0.69977903 -0.7409634 1.9639146 2.2214294e-39
-0.68735087 -0.73618913 1.9512606 2.4054605e-39
-0.67908162 -0.73580986 1.9502553 2.3129076e-39
-0.66978616 -0.73429662 1.9462444 2.4969373e-39
-0.66103762 -0.73335403 1.943746 2.4043731e-39
-0.65314889 -0.73335403 1.943746 2.0352277e-39
-0.64476353 -0.73278964 1.94225 2.1252569e-39
-0.6367175 -0.73260164 1.941752 5.5314519e-39
-0.62883687 -0.73260164 1.941752 9.2113654e-39
-0.61952615 -0.73091453 1.9372802 3.7826244e-39
-0.610726 -0.72979403 1.9343103 2.4051032e-39
-0.60195279 -0.72867703 1.9313496 2.5895029e-39
-0.59456939 -0.72923511 1.9328289 2.4058333e-39
-0.58523089 -0.72737813 1.927907 2.4976646e-39
-0.57799512 -0.72811979 1.9298728 2.4976646e-39
-0.57191211 -0.73035383 1.9357941 2.6817013e-39
-0.56276059 -0.72867703 1.9313496 2.6820586e-39
-0.55762494 -0.73222607 1.9407564 2.5909462e-39
-0.55458194 -0.73866403 1.9578202 2.4987506e-39
-0.53896755 -0.75010872 1.9881541 2.4983932e-39
-0.52489716 -0.75307512 1.9960165 2.4987478e-39
-0.51435536 -0.74951822 1.9865891 2.4987478e-39
-0.50391269 -0.74599475 1.9772501 2.5902287e-39
-0.49421006 -0.74347055 1.9705598 2.4991107e-39
-0.48545438 -0.7423113 1.9674872 2.5909462e-39
-0.47722122 -0.74192572 1.9664651 2.6827845e-39
-0.46826726 -0.7403872 1.9623874 2.6827859e-39
-0.45970708 -0.73942894 1.9598475 4.1557482e-39
-0.45128569 -0.73866403 1.9578202 1.2453342e-38
-0.4434545 -0.73885512 1.9583266 6.6425107e-39
-0.43505645 -0.73809147 1.9563025 1.8519322e-39
-0.42656562 -0.73713905 1.9537783 2.774613e-39
-0.41820449 -0.73637897 1.9517635 2.4991093e-39
-0.41007176 -0.73599946 1.9507577 2.6831488e-39
-0.40215456 -0.73599946 1.9507577 2.5905959e-39
-0.3941358 -0.73580986 1.9502553 2.6831502e-39
-0.3859224 -0.73524165 1.9487492 2.7757032e-39
-0.38364208 -0.74618965 1.9777666 2.5916693e-39
-0.37808445 -0.75109488 1.9907681 2.775699e-39
-0.3673965 -0.74579996 1.9767339 2.7753445e-39
-0.3569507 -0.74077123 1.9634053 2.9597385e-39
-0.69905365 -0.73223305 1.9618789 2.2214308e-39
-0.68806022 -0.72902149 1.9532743 2.2214294e-39
-0.67908162 -0.72789472 1.9502553 2.4051032e-39
-0.66926998 -0.72583801 1.9447446 2.3129034e-39
-0.66086793 -0.72527909 1.9432471 2.2203462e-39
-0.65298122 -0.72527909 1.9432471 2.2192672e-39
-0.64476353 -0.72490692 1.94225 1.8497532e-39
-0.6367175 -0.72472101 1.941752 3.0450524e-39
-0.62867558 -0.72453517 1.941254 6.4501628e-39
-0.62031978 -0.72397828 1.9397619 6.5409165e-39
-0.61103821 -0.72231269 1.9352993 3.3238085e-39
-0.60256767 -0.7215749 1.9333224 2.4973002e-39
-0.59456939 -0.72139066 1.9328289 2.4973044e-39
-0.58567828 -0.7201038 1.9293809 2.4976646e-39
-0.57858509 -0.72102255 1.9318424 2.589856e-39
-0.5717659 -0.72231269 1.9352993 2.6820572e-39
-0.56290424 -0.72102255 1.9318424 2.6820572e-39
-0.553792 -0.71937048 1.9274162 2.5905819e-39
-0.54776931 -0.73223305 1.9618789 2.5898644e-39
-0.54603279 -0.74067819 1.9845061 2.4065507e-39
-0.54038662 -0.74399346 1.9933888 2.313995e-39
-0.52503562 -0.74517071 1.9965429 2.4987506e-39
-0.51233882 -0.7385487 1.9788005 2.5905861e-39
-0.50299317 -0.73662335 1.973642 2.5905861e-39
-0.49369606 -0.73470807 1.9685104 2.4987492e-39
-0.48520219 -0.73394471 1.9664651 2.4983918e-39
-0.47635514 -0.73261273 1.9628962 2.5909462e-39
-0.46802464 -0.73204333 1.9613707 3.6011339e-39
-0.45923156 -0.7307182 1.9578202 1.0879187e-38
-0.45128569 -0.7307182 1.9578202 1.0422869e-38
-0.4432252 -0.73052931 1.957314 1.9451999e-39
-0.43471947 -0.72958618 1.9547871 2.6824132e-39
-0.42590615 -0.72808224 1.9507577 2.5902245e-39
-0.41798896 -0.72808224 1.9507577 2.5909476e-39
-0.40964955 -0.72733265 1.9487492 2.5909518e-39
-0.40153378 -0.72695839 1.9477465 2.6827859e-39
-0.39362881 -0.72695839 1.9477465 2.5909476e-39
-0.3858231 -0.72714543 1.9482478 2.5913105e-39
-0.38484851 -0.74048406 1.983986 2.7753459e-39
-0.37908125 -0.74497426 1.9960165 2.6838677e-39
-0.36884105 -0.74067819 1.9845061 2.8678988e-39
-0.35769281 -0.73432618 1.9674872 2.8678988e-39
-0.69437534 -0.71942359 1.9487492 2.1292338e-39
-0.68859321 -0.72165263 1.9547871 2.3129076e-39
-0.67995739 -0.72090805 1.9527704 2.3129076e-39
-0.66926998 -0.71794516 1.9447446 2.4965772e-39
-0.66052884 -0.71702427 1.94225 2.312902e-39
-0.65264618 -0.71702427 1.94225 2.3125418e-39
-0.64476353 -0.71702427 1.94225 2.1270618e-39
-0.63639104 -0.71647286 1.9407564 2.0337801e-39
-0.62819237 -0.7161057 1.9397619 3.7790119e-39
-0.62016094 -0.7159223 1.939265 8.9308044e-39
-0.61150718 -0.71500653 1.9367845 6.0774146e-39
-0.60349232 -0.71482366 1.9362892 3.139783e-39
-0.5947212 -0.71372843 1.9333224 2.4969401e-39
-0.58552909 -0.71209186 1.9288894 2.4976618e-39
-0.57873273 -0.71336412 1.9323356 2.4058249e-39
-0.57147378 -0.71409315 1.9343103 2.4973072e-39
-0.56290424 -0.71318209 1.9318424 2.4054731e-39
-0.55294734 -0.71046281 1.9244765 2.4980247e-39
-0.54635346 -0.7223987 1.9568082 2.4976674e-39
-0.53813356 -0.72202545 1.9557972 2.4980289e-39
-0.53327924 -0.73726207 1.9970696 2.5902273e-39
-0.52448237 -0.73629099 1.9944391 2.4058375e-39
-0.51207113 -0.73013598 1.9777666 2.5905847e-39
-0.5031243 -0.72880328 1.9741566 2.6827789e-39
-0.49408147 -0.7272861 1.970047 2.5909434e-39
-0.48507619 -0.7257753 1.9659545 2.5909462e-39
-0.47610825 -0.7242707 1.9618789 2.6816971e-39
-0.46754014 -0.72333348 1.9593402 6.189426e-39
-0.45935035 -0.72295928 1.9583266 1.2371519e-38
-0.45140243 -0.72295928 1.9583266 2.7778094e-39
-0.44299614 -0.72221202 1.9563025 2.1295953e-39
-0.43460724 -0.72146636 1.9542826 2.4983862e-39
-0.42557719 -0.71960878 1.9492509 2.6827789e-39
-0.41777366 -0.71979415 1.9497529 2.4991093e-39
-0.409123 -0.71849889 1.9462444 2.4987506e-39
-0.40060622 -0.71739233 1.9432471 2.6831446e-39
-0.39322415 -0.71831423 1.9457443 2.4994694e-39
-0.3858231 -0.71923846 1.9482478 2.7760605e-39
-0.3870801 -0.73667914 1.9954904 2.6835076e-39
-0.37888148 -0.736485 1.9949646 2.7753403e-39
-0.37000489 -0.73493576 1.9907681 2.7749801e-39
-0.35806501 -0.72709692 1.9695345 2.8675373e-39
-0.69832987 -0.70750803 1.937776 2.1292324e-39
-0.69162899 -0.71686566 1.9634053 2.2210707e-39
-0.6877628 -0.72116721 1.9751867 2.3129048e-39
-0.67255247 -0.71353483 1.9542826 2.3129076e-39
-0.66256857 -0.71133143 1.9482478 2.405099e-39
-0.65432483 -0.71096551 1.9472456 2.3132593e-39
-0.64608949 -0.71059996 1.9462444 2.3121761e-39
-0.63786268 -0.71023482 1.9452443 2.0352207e-39
-0.62899816 -0.70914161 1.94225 2.1259744e-39
-0.62031978 -0.70823312 1.9397619 4.2371034e-39
-0.61229038 -0.70805174 1.939265 1.0123587e-38
-0.60272157 -0.70606232 1.9338163 5.8015536e-39
-0.59487313 -0.70606232 1.9338163 2.5880483e-39
-0.58433807 -0.70283091 1.9249659 2.4054661e-39
-0.57696563 -0.70336741 1.9264354 2.4058319e-39
-0.56929201 -0.7035464 1.9269257 2.4976688e-39
-0.56033063 -0.70211685 1.9230101 2.4976674e-39
-0.54959446 -0.69839162 1.9128072 2.497666e-39
-0.53855836 -0.70426345 1.9288894 2.4976674e-39
-0.53454322 -0.70932359 1.9427484 2.3136334e-39
-0.53215629 -0.72762144 1.9928641 2.5898658e-39
-0.52173352 -0.72437996 1.983986 2.5898658e-39
-0.51047093 -0.71985257 1.9715861 2.5902259e-39
-0.50207692 -0.71929061 1.970047 2.5905833e-39
-0.49318314 -0.71798283 1.9664651 2.5905833e-39
-0.48381984 -0.71593732 1.9608626 2.4983932e-39
-0.47524619 -0.71501136 1.9583266 3.0511929e-39
-0.46681526 -0.71427232 1.9563025 1.1258025e-38
-0.45887557 -0.71427232 1.9563025 7.0170301e-39
-0.45093587 -0.71427232 1.9563025 1.6682542e-39
-0.44219631 -0.71298271 1.9527704 2.4976632e-39
-0.43371162 -0.71206439 1.9502553 2.4983876e-39
-0.42513937 -0.71096551 1.9472456 2.4065493e-39
-0.41723642 -0.71096551 1.9472456 2.4061906e-39
-0.40817863 -0.7089597 1.941752 2.6827817e-39
-0.39906976 -0.70678443 1.9357941 2.6831446e-39
-0.39332524 -0.71059996 1.9462444 2.683146e-39
-0.38751835 -0.71445698 1.9568082 2.5913091e-39
-0.38677427 -0.72800475 1.9939138 2.6831418e-39
-0.37888148 -0.72838837 1.9949646 2.7753375e-39
-0.37068719 -0.7281965 1.9944391 2.6831418e-39
-0.35806501 -0.71910352 1.9695345 2.6838649e-39
-0.69832981 -0.70761257 1.9598475 2.1285191e-39
-0.69997936 -0.71745598 1.9871105 2.3129104e-39
-0.6886611 -0.71408236 1.9777666 2.2210707e-39
-0.67499173 -0.70816249 1.9613707 2.3129062e-39
-0.66359317 -0.70451218 1.9512606 2.4047417e-39
-0.65499866 -0.70378661 1.9492509 2.3129006e-39
-0.64642185 -0.70306259 1.9472456 2.2199847e-39
-0.63786268 -0.70234001 1.9452443 2.2192616e-39
-0.62899816 -0.7012589 1.94225 1.941946e-39
-0.62016094 -0.70018119 1.939265 1.9408614e-39
-0.61182022 -0.69964355 1.937776 5.4320452e-39
-0.603338 -0.69892794 1.9357941 7.8233751e-39
-0.59396285 -0.69714546 1.9308572 5.1597925e-39
-0.58463538 -0.69537199 1.9259453 2.4962156e-39
-0.57667214 -0.69519514 1.9254555 2.4054689e-39
-0.56900233 -0.69537199 1.9259453 2.4976646e-39
-0.56018829 -0.6941359 1.9225218 2.5891441e-39
-0.55028963 -0.69150198 1.9152266 2.497303e-39
-0.54169446 -0.69045395 1.9123241 2.4054661e-39
-0.53814703 -0.69590306 1.9274162 2.4973058e-39
-0.53674698 -0.70433068 1.9507577 2.4976674e-39
-0.53882605 -0.71764433 1.9876322 2.4980233e-39
-0.53131711 -0.71839875 1.9897217 2.4980219e-39
-0.52036983 -0.71445566 1.9788005 2.589863e-39
-0.50980711 -0.71092516 1.9690223 2.5902259e-39
-0.50155491 -0.71055555 1.9679986 2.5898672e-39
-0.49241573 -0.70889711 1.9634053 2.4976702e-39
-0.48381984 -0.70797908 1.9608626 2.8642905e-39
-0.47463232 -0.70615017 1.9557972 7.102407e-39
-0.46669468 -0.70615017 1.9557972 1.1070394e-38
-0.45875701 -0.70615017 1.9557972 2.3114572e-39
-0.45058656 -0.70578551 1.9547871 2.405099e-39
-0.44219631 -0.70505732 1.9527704 2.497666e-39
-0.4333767 -0.70360547 1.9487492 2.5902245e-39
-0.42492077 -0.70270109 1.9462444 2.4983862e-39
-0.4169147 -0.70252049 1.9457443 2.4980289e-39
-0.40744713 -0.69982266 1.9382721 2.7749787e-39
-0.3987639 -0.69839227 1.9343103 2.5909462e-39
-0.39131334 -0.69910669 1.9362892 2.5905903e-39
-0.39207858 -0.71482933 1.9798355 2.5909434e-39
-0.38535342 -0.71726769 1.9865891 2.7749759e-39
-0.37958163 -0.72162282 1.9986513 2.8668156e-39
-0.37107819 -0.72086161 1.9965429 2.6827831e-39
-0.35871825 -0.71240741 1.9731276 2.7757018e-39
-0.69616723 -0.69749177 1.9537783 2.2210735e-39
-0.68859321 -0.69785196 1.9547871 2.3125544e-39
-0.68722492 -0.70458305 1.973642 2.2207133e-39
-0.67621803 -0.70147437 1.964934 2.220349e-39
-0.66359317 -0.69659293 1.9512606 2.312546e-39
-0.65432483 -0.69515961 1.9472456 2.2210651e-39
-0.6457575 -0.69444519 1.9452443 2.2207035e-39
-0.63704425 -0.69355416 1.9427484 2.1277904e-39
-0.62803149 -0.69231063 1.939265 2.0352291e-39
-0.61936766 -0.69142509 1.9367845 1.9415859e-39
-0.61166364 -0.69160199 1.9372802 2.0323368e-39
-0.60349232 -0.69124824 1.9362892 5.7097195e-39
-0.59517717 -0.69071829 1.9348047 6.4447636e-39
-0.58627594 -0.68948483 1.9313496 4.2414432e-39
-0.57799512 -0.68895757 1.9298728 2.5887728e-39
-0.57016271 -0.68895757 1.9298728 2.4976576e-39
-0.56204373 -0.6886065 1.9288894 2.3132705e-39
-0.55280685 -0.68685657 1.9239875 2.497303e-39
-0.54555285 -0.68755549 1.9259453 2.4054661e-39
-0.54062444 -0.69124824 1.9362892 2.4058277e-39
-0.54135007 -0.70238584 1.9674872 2.3139922e-39
-0.53769672 -0.70809031 1.9834663 2.3132719e-39
-0.52992445 -0.70846152 1.9845061 2.4976604e-39
-0.51941949 -0.70513451 1.9751867 2.313632e-39
-0.50940967 -0.70238584 1.9674872 2.4061906e-39
-0.50103396 -0.70183867 1.9659545 2.4980275e-39
-0.49177805 -0.70002091 1.9608626 2.58987e-39
-0.48294425 -0.69875401 1.957314 2.7753305e-39
-0.47450975 -0.6980322 1.955292 1.1353787e-38
-0.46645367 -0.69785196 1.9547871 5.1748831e-39
-0.45863855 -0.6980322 1.955292 1.7608002e-39
-0.45012167 -0.69713199 1.9527704 2.4051032e-39
-0.44174057 -0.69641346 1.9507577 2.6816943e-39
-0.43293095 -0.69498086 1.9467449 2.4058291e-39
-0.42448428 -0.69408852 1.9442452 2.3136348e-39
-0.41627282 -0.69355416 1.9427484 2.498389e-39
-0.40651047 -0.69036543 1.9338163 2.4991107e-39
-0.3974438 -0.68825585 1.927907 2.4061878e-39
-0.39505169 -0.69785196 1.9547871 2.5905833e-39
-0.39351931 -0.70939124 1.9871105 2.4991065e-39
-0.38434491 -0.707349 1.9813899 2.590949e-39
-0.37137201 -0.71332294 1.9981238 2.4069151e-39
-0.36031464 -0.70753419 1.9819086 2.6831432e-39
-0.6997627 -0.68531775 1.941752 2.1288722e-39
-0.68735087 -0.68867368 1.9512606 2.2207119e-39
-0.68065965 -0.6899184 1.9547871 2.3125474e-39
-0.67064816 -0.68778735 1.9487492 2.3125446e-39
-0.66651344 -0.69170439 1.9598475 2.2203462e-39
-0.65567392 -0.68867368 1.9512606 2.3125432e-39
-0.64642185 -0.68725669 1.9472456 2.3125418e-39
-0.63769883 -0.68637401 1.9447446 2.2196245e-39
-0.62803149 -0.68444008 1.939265 2.2196203e-39
-0.61905092 -0.68321502 1.9357941 2.1263387e-39
-0.61150718 -0.6835646 1.9367845 1.664992e-39
-0.60380113 -0.68373948 1.9372802 2.6769845e-39
-0.5962438 -0.6840896 1.9382721 5.802634e-39
-0.58777535 -0.68338978 1.9362892 5.9870295e-39
-0.58006519 -0.6835646 1.9367845 3.1390599e-39
-0.57118189 -0.68234271 1.9333224 2.3125432e-39
-0.56304789 -0.68199438 1.9323356 2.3132677e-39
-0.55449784 -0.68112516 1.9298728 2.4054703e-39
-0.54722333 -0.68182033 1.9318424 2.4976632e-39
-0.54145533 -0.68444008 1.939265 2.4054647e-39
-0.53966707 -0.69224197 1.9613707 2.4058235e-39
-0.53629172 -0.69821113 1.9782834 2.4058249e-39
-0.52881551 -0.69894165 1.9803534 2.4976646e-39
-0.51887804 -0.69639146 1.9731276 2.313632e-39
-0.50927728 -0.6942203 1.966976 2.4061864e-39
-0.49986574 -0.69224197 1.9613707 2.4058277e-39
-0.49101502 -0.6909889 1.9578202 2.4962268e-39
-0.48244536 -0.69009656 1.955292 7.2860864e-39
-0.47438723 -0.6899184 1.9547871 9.4130585e-39
-0.46633327 -0.6897403 1.9542826 1.9437607e-39
-0.45840177 -0.6897403 1.9542826 2.4969345e-39
-0.45000562 -0.68902886 1.9522668 2.405106e-39
-0.44139937 -0.68796444 1.9492509 2.4976674e-39
-0.43248612 -0.68637401 1.9447446 2.6824188e-39
-0.42383122 -0.68514204 1.941254 2.4987478e-39
-0.41510111 -0.68373948 1.9372802 2.4061962e-39
-0.40651047 -0.68251699 1.9338163 2.3143607e-39
-0.39774767 -0.6809516 1.9293809 2.4065451e-39
-0.39917433 -0.69711816 1.9751867 2.5902217e-39
-0.39445108 -0.70298707 1.9918156 2.5905875e-39
-0.38404337 -0.6987589 1.9798355 2.5905917e-39
-0.37137201 -0.70521349 1.9981238 2.6824286e-39
-0.36154503 -0.70187914 1.9886763 2.6827887e-39
-0.6935901 -0.66398376 1.9031903 2.2207049e-39
-0.6877678 -0.66582489 1.9084675 2.4050976e-39
-0.69383955 -0.67935371 1.9472456 2.2207077e-39
-0.68417686 -0.67761093 1.94225 2.2207091e-39
-0.67061687 -0.6719225 1.9259453 2.2207077e-39
-0.67185873 -0.68110555 1.9522668 2.2207063e-39
-0.66703147 -0.68428171 1.9613707 2.2207063e-39
-0.65855938 -0.68375027 1.9598475 2.3125446e-39
-0.64842314 -0.68145698 1.9532743 2.3121845e-39
-0.6395058 -0.68040377 1.9502553 2.3121803e-39
-0.62964427 -0.67830694 1.9442452 2.1277862e-39
-0.62031978 -0.67674285 1.9397619 2.2188987e-39
-0.6127612 -0.67708981 1.9407564 2.0341389e-39
-0.60488462 -0.67708981 1.9407564 1.6657137e-39
-0.59716111 -0.67726344 1.941254 3.5967856e-39
-0.58898044 -0.6769163 1.9402591 6.3543715e-39
-0.58021367 -0.67587698 1.9372802 5.7104454e-39
-0.57132781 -0.67466855 1.9338163 2.7713578e-39
-0.56261706 -0.67363614 1.9308572 2.4969401e-39
-0.55407411 -0.67277825 1.928398 2.2217951e-39
-0.54652607 -0.67312115 1.9293809 2.313988e-39
-0.54062444 -0.67553127 1.9362892 2.4054647e-39
-0.53827262 -0.68251354 1.9563025 2.4973044e-39
-0.5344761 -0.68784565 1.9715861 2.4976646e-39
-0.52798688 -0.68982172 1.9772501 2.5891413e-39
-0.51847267 -0.68784565 1.9715861 2.3136292e-39
-0.50835282 -0.68499154 1.9634053 2.3139866e-39
-0.49999526 -0.68445903 1.9618789 2.4973016e-39
-0.49063438 -0.68251354 1.9563025 2.3139908e-39
-0.48256999 -0.68233722 1.9557972 1.1072171e-38
-0.47438723 -0.68198484 1.9547871 6.3680453e-39
-0.46633327 -0.68180883 1.9542826 2.220349e-39
-0.45840177 -0.68180883 1.9542826 2.3125474e-39
-0.4498896 -0.68092996 1.9517635 2.4973016e-39
-0.44139937 -0.68005335 1.9492509 2.6816985e-39
-0.43226406 -0.67813283 1.943746 2.4976674e-39
-0.42328855 -0.67639625 1.9387684 2.5902259e-39
-0.41499493 -0.67570412 1.9367845 2.4983904e-39
-0.40465 -0.67158079 1.9249659 2.4983918e-39
-0.3995806 -0.6762231 1.9382721 2.4987464e-39
-0.39813563 -0.68730867 1.970047 2.5909406e-39
-0.39517885 -0.69618535 1.9954904 2.5902287e-39
-0.3851513 -0.6927163 1.9855471 2.4983904e-39
-0.37147006 -0.6972881 1.9986513 2.6820628e-39
-0.36240175 -0.69545215 1.9933888 2.5905875e-39
-0.6737017 -0.66716093 1.9348047 2.2210679e-39
-0.66961402 -0.67093307 1.9457443 2.2207077e-39
-0.67454582 -0.68394041 1.9834663 2.3125474e-39
-0.66215897 -0.67949003 1.9705598 2.4043843e-39
-0.65111095 -0.67632139 1.9613707 2.220349e-39
-0.64049578 -0.67352957 1.9532743 2.1285121e-39
-0.63045382 -0.67127812 1.9467449 2.4047389e-39
-0.62063783 -0.66921318 1.9407564 2.2199819e-39
-0.61291832 -0.66938478 1.941254 1.9430264e-39
-0.60550547 -0.66990012 1.9427484 1.7582694e-39
-0.59777421 -0.67007202 1.9432471 1.7571932e-39
-0.58913141 -0.66921318 1.9407564 4.8824826e-39
-0.58065939 -0.66852772 1.9387684 8.7456957e-39
-0.57103604 -0.66647959 1.9328289 5.2505406e-39
-0.56233025 -0.66546029 1.9298728 2.8642779e-39
-0.55365103 -0.66444403 1.9269257 2.4051032e-39
-0.54610854 -0.66478246 1.927907 2.4058221e-39
-0.53965831 -0.66647959 1.9328289 2.3136306e-39
-0.53702372 -0.67300868 1.9517635 2.4973086e-39
-0.53364229 -0.6787833 1.9685104 2.4969499e-39
-0.52716082 -0.68073028 1.9741566 2.4969443e-39
-0.51779842 -0.67895985 1.9690223 2.4054647e-39
-0.50743163 -0.67579621 1.9598475 2.4054647e-39
-0.49896088 -0.67509717 1.9578202 2.4043829e-39
-0.49063438 -0.67457384 1.9563025 4.5231e-39
-0.48244536 -0.67422539 1.955292 9.3241027e-39
-0.47438723 -0.67405128 1.9547871 2.314704e-39
-0.46633327 -0.6738773 1.9542826 2.4047431e-39
-0.45840177 -0.6738773 1.9542826 2.3129076e-39
-0.4498896 -0.67300868 1.9517635 2.497659e-39
-0.4410587 -0.67162353 1.9477465 2.5891399e-39
-0.4315992 -0.66921318 1.9407564 2.4051088e-39
-0.42220736 -0.66682011 1.9338163 2.3132761e-39
-0.41414735 -0.66647959 1.9328289 2.3139936e-39
-0.40609556 -0.66613948 1.9318424 2.498745e-39
-0.39856023 -0.66664982 1.9333224 2.4983848e-39
-0.3971023 -0.67755014 1.964934 2.4976632e-39
-0.38585967 -0.68591714 1.9891988 2.5902245e-39
-0.37888148 -0.68790531 1.9949646 2.6827789e-39
-0.37156814 -0.68935853 1.999179 2.4987478e-39
-0.36297518 -0.68844956 1.9965429 2.4987464e-39
-0.66755527 -0.66099769 1.9397619 2.3129048e-39
-0.66565186 -0.66697878 1.957314 2.3129104e-39
-0.66147029 -0.67079407 1.9685104 2.312553e-39
-0.64976424 -0.66697878 1.957314 2.312546e-39
-0.63934112 -0.66440225 1.9497529 2.2207077e-39
-0.62851447 -0.6613366 1.9407564 2.0363165e-39
-0.61857647 -0.65913999 1.9343103 2.1281492e-39
-0.61166364 -0.66015202 1.9372802 2.1277862e-39
-0.60441983 -0.66082841 1.939265 2.0348633e-39
-0.59716111 -0.66150618 1.941254 1.8497476e-39
-0.58837724 -0.66049004 1.9382721 2.0334214e-39
-0.57962036 -0.659477 1.9352993 5.0650648e-39
-0.57103604 -0.6586352 1.9328289 9.2055934e-39
-0.56247365 -0.65779549 1.9303648 4.5144189e-39
-0.553792 -0.65679073 1.9274162 2.5880497e-39
-0.54624766 -0.65712529 1.928398 2.496217e-39
-0.53965831 -0.6586352 1.9328289 2.49658e-39
-0.53619432 -0.66406024 1.9487492 2.3125502e-39
-0.53281111 -0.6697492 1.9654441 2.4047501e-39
-0.52702338 -0.67254275 1.973642 2.4047445e-39
-0.51578629 -0.66836113 1.9613707 2.3132691e-39
-0.50677568 -0.66697878 1.957314 2.5894987e-39
-0.4980593 -0.66594577 1.9542826 2.4047375e-39
-0.49038094 -0.66628975 1.955292 8.4881833e-39
-0.48219627 -0.66594577 1.9542826 8.0300904e-39
-0.47414237 -0.66577393 1.9537783 1.9455628e-39
-0.46609265 -0.66560215 1.9532743 2.2207147e-39
-0.45828345 -0.66577393 1.9537783 2.405106e-39
-0.44965777 -0.66474468 1.9507577 2.3136292e-39
-0.44071853 -0.6632067 1.9462444 2.3136264e-39
-0.43060574 -0.6598143 1.9362892 2.4051074e-39
-0.42231524 -0.65913999 1.9343103 2.4054675e-39
-0.41361937 -0.65779549 1.9303648 2.3143509e-39
-0.40964955 -0.66406024 1.9487492 2.4065479e-39
-0.3995806 -0.66049004 1.9382721 2.4980233e-39
-0.39917433 -0.67306912 1.9751867 2.4980219e-39
-0.37778646 -0.67784393 1.9891988 2.5905833e-39
-0.36326256 -0.6808852 1.9981238 2.4069067e-39
-0.35098466 -0.67289358 1.9746716 2.4069109e-39
-0.6574927 -0.65095693 1.9333224 2.1285177e-39
-0.65635055 -0.65767473 1.9532743 2.4047445e-39
-0.65010041 -0.65937591 1.9583266 2.2199903e-39
-0.63753504 -0.65463465 1.9442452 2.2203504e-39
-0.6262669 -0.65112323 1.9338163 2.2207105e-39
-0.60994679 -0.65045863 1.9318424 2.3121831e-39
-0.60287553 -0.65128958 1.9343103 2.1277862e-39
-0.59593862 -0.65228951 1.9372802 2.0348647e-39
-0.58747482 -0.65162253 1.9352993 1.6657165e-39
