# .PCD v0.7 - Point Cloud Data file format
VERSION 0.7
FIELDS x y z rgb
SIZE 4 4 4 4
TYPE F F F F
COUNT 1 1 1 1
WIDTH 1032
HEIGHT 1
VIEWPOINT 0 0 0 1 0 0 0
POINTS 1032
DATA ascii
0.42408404 0.41820645 1.2409261 1.6410096e-38
0.43678066 0.42567194 1.2630782 1.6318626e-38
0.44743076 0.43099284 1.2788666 1.5949841e-38
0.46008185 0.43809712 1.2999469 1.6041672e-38
0.48471004 0.41406646 1.2286417 1.5858001e-38
0.5029183 0.42524627 1.2618151 1.5949118e-38
0.51403654 0.43026602 1.27671 1.594948e-38
0.52866811 0.43809712 1.2999469 1.6041671e-38
0.5377295 0.44120309 1.3091632 1.5949836e-38
0.54825705 0.44543952 1.3217337 1.5857643e-38
0.59096569 0.44936201 1.3333728 1.5671818e-38
0.59637719 0.44936201 1.3333728 1.5764372e-38
0.59065801 0.44105056 1.3087106 1.5672894e-38
0.59350717 0.43922836 1.3033036 1.5672177e-38
0.59307927 0.43503454 1.2908595 1.5580338e-38
0.59106225 0.42975873 1.2752048 1.5489216e-38
0.58840811 0.42411527 1.2584592 1.5673251e-38
0.59105939 0.42236012 1.2532512 1.5672537e-38
0.59349316 0.42048082 1.2476748 1.5672533e-38
0.59590536 0.41861814 1.2421478 1.5396302e-38
0.59732056 0.41609222 1.2346528 1.5488137e-38
0.59794337 0.41306096 1.2256582 1.5396667e-38
0.6001004 0.41113076 1.2199309 1.548851e-38
0.6025272 0.40941551 1.2148412 1.5027176e-38
0.6045475 0.4074541 1.2090212 1.2262738e-38
0.60703087 0.40583387 1.2042136 7.1923395e-39
0.60988104 0.40448281 1.2002046 5.9905635e-39
0.61377907 0.4038426 1.198305 9.9560546e-39
0.61707973 0.40282246 1.1952779 1.3369441e-38
0.61707973 0.40282246 1.1952779 1.4473635e-38
0.61707973 0.40282246 1.1952779 1.4288882e-38
0.61707973 0.40282246 1.1952779 1.4197045e-38
0.61707973 0.40282246 1.1952779 1.4013732e-38
0.61707973 0.40282246 1.1952779 1.3921177e-38
0.61707973 0.40282246 1.1952779 1.4012655e-38
0.61707973 0.40282246 1.1952779 1.3828264e-38
0.61707973 0.40282246 1.1952779 1.3552397e-38
0.61707973 0.40282246 1.1952779 1.3368368e-38
-0.64128953 0.35271195 1.0341334 1.1154217e-38
-0.63796389 0.35319439 1.0355479 1.1062743e-38
-0.63515115 0.35396904 1.0378191 1.1246774e-38
-0.63617152 0.35690451 1.0464258 1.1338968e-38
-0.63402778 0.3580924 1.0499086 1.1339324e-38
-0.6347844 0.36094552 1.0582738 1.1339323e-38
-0.63270032 0.36221129 1.061985 1.1615193e-38
-0.62998092 0.36312813 1.0646732 1.1615195e-38
-0.62760156 0.36425507 1.0679773 1.1615915e-38
-0.62547296 0.3655442 1.071757 1.1800305e-38
-0.62315214 0.36673829 1.0752579 1.1708108e-38
-0.62081611 0.36794019 1.0787818 1.1800305e-38
-0.61881858 0.36936119 1.0829482 1.1984339e-38
-0.61671704 0.37074003 1.0869908 1.2168371e-38
-0.61575335 0.37282765 1.0931116 1.1984699e-38
-0.61621028 0.37581199 1.1018616 1.0785798e-38
-0.61550069 0.37812331 1.1086383 7.3759979e-39
-0.61369723 0.37979177 1.11353 4.7026862e-39
-0.61124569 0.3810809 1.1173097 6.5440848e-39
-0.60868734 0.38232222 1.1209491 1.0325183e-38
-0.60710424 0.38419941 1.126453 1.2630787e-38
-0.60604924 0.38644183 1.1330277 1.2998128e-38
-0.60552877 0.38906196 1.1407098 1.2813737e-38
-0.6039018 0.39100608 1.1464099 1.2814097e-38
-0.6015262 0.39249191 1.1507661 1.2813737e-38
-0.59940684 0.39416948 1.1556847 1.2998126e-38
-0.59708625 0.39574012 1.1602898 1.3367268e-38
-0.59438121 0.39707893 1.1642151 1.3367269e-38
-0.59147531 0.3983039 1.1678067 1.3183238e-38
-0.58864248 0.3995983 1.1716018 1.3551302e-38
-0.58588213 0.4009634 1.1756041 1.3735336e-38
-0.58319378 0.40240052 1.1798178 1.3367273e-38
-0.58267313 0.40536958 1.1885229 1.3552022e-38
-0.58557129 0.41078654 1.2044052 1.3644218e-38
-0.58365434 0.41288844 1.2105677 1.3643857e-38
-0.57864875 0.41282243 1.2103742 1.3828247e-38
-0.57327813 0.41249269 1.2094074 1.4011922e-38
-0.56243986 0.40818909 1.1967896 1.401264e-38
-0.45240557 0.38482925 1.1282997 1.4842402e-38
-0.43847677 0.38068762 1.1161567 1.4933877e-38
-0.43639159 0.38283235 1.1224449 1.484168e-38
-0.42802861 0.37945691 1.1125482 1.5026788e-38
-0.40394855 0.40034175 1.1737815 1.5118629e-38
-0.40011522 0.40127492 1.1765176 1.5210826e-38
-0.39540175 0.4013373 1.1767005 1.5210104e-38
-0.38252103 0.3978743 1.1665471 1.4841685e-38
-0.34187379 0.36930838 1.0827934 1.4657289e-38
-0.3400079 0.37207553 1.0909065 1.4565817e-38
-0.34008881 0.37707421 1.1055623 1.4381422e-38
-0.33457586 0.37592143 1.1021824 1.4197747e-38
-0.32724419 0.37266621 1.0926383 1.4197749e-38
-0.32091081 0.37047407 1.086211 1.410484e-38
-0.34185985 0.4001556 1.1732358 1.3920447e-38
-0.33856732 0.40189949 1.1783488 1.3828251e-38
-0.33847353 0.40754485 1.1949006 1.382825e-38
-0.33415139 0.40818909 1.1967896 1.4012643e-38
-0.32768837 0.40619856 1.1909534 1.3736057e-38
-0.29900762 0.37619525 1.1029853 1.4104837e-38
-0.31682521 0.40467077 1.1864741 1.3920086e-38
-0.2866717 0.37180766 1.090121 1.4012283e-38
-0.28400585 0.37412405 1.0969126 1.4381062e-38
-0.27622274 0.37564799 1.1013807 1.3552381e-38
-0.27151576 0.37532037 1.1004201 1.4012997e-38
-0.26673952 0.37488446 1.0991421 1.4197391e-38
-0.26354122 0.37668917 1.1044334 1.4105197e-38
-0.25781772 0.37488446 1.0991421 1.4381425e-38
-0.25361454 0.37526584 1.1002603 1.4380706e-38
-0.24940284 0.37564799 1.1013807 1.4472899e-38
-0.24622236 0.37762564 1.1071792 1.4382143e-38
-0.23644494 0.39904252 1.1699723 1.4750925e-38
-0.23066285 0.39726219 1.1647525 1.4842761e-38
-0.22708859 0.39928934 1.1706959 1.4935316e-38
-0.2153445 0.38673121 1.1338761 1.5119705e-38
-0.19616257 0.3764146 1.1036284 1.5027515e-38
-0.19143231 0.37592143 1.1021824 1.5303743e-38
-0.18644337 0.37488446 1.0991421 1.5488132e-38
-0.18237965 0.37570262 1.1015409 1.5304462e-38
-0.17598857 0.37164712 1.0896504 1.558033e-38
-0.17245978 0.37358278 1.0953256 1.5672165e-38
-0.1514356 0.3657513 1.0723641 1.5672524e-38
-0.16630505 0.41354969 1.2125065 1.5765079e-38
-0.14267054 0.36559594 1.0719086 1.5672523e-38
-0.15514617 0.41006896 1.2023013 1.5672167e-38
-0.15103412 0.41216347 1.2084422 1.6132789e-38
-0.13388447 0.37762564 1.1071792 1.5673607e-38
-0.14215544 0.41487858 1.2164028 1.5857997e-38
-0.13795005 0.41709 1.2228866 1.558141e-38
-0.12036873 0.37751523 1.1068554 1.5672886e-38
-0.11636991 0.37912261 1.1115682 1.6133502e-38
-0.12424475 0.42110309 1.2346528 1.6042028e-38
-0.11962404 0.42248106 1.2386929 1.5949836e-38
-0.10709716 0.39483243 1.1576285 1.6133507e-38
-0.10119203 0.39017895 1.1439847 1.6317891e-38
-0.097670771 0.39471173 1.1572746 1.6317533e-38
-0.09400858 0.39910421 1.1701531 1.6041672e-38
-0.087767303 0.39243224 1.1505913 1.5950196e-38
-0.082933746 0.39165846 1.1483226 1.6042027e-38
-0.078142874 0.39100608 1.1464099 1.5949112e-38
-0.073445655 0.39076939 1.145716 1.4290316e-38
-0.069119997 0.39261127 1.1511161 1.1983265e-38
-0.064961776 0.39574012 1.1602898 6.8228339e-39
-0.059949514 0.39374873 1.1544511 6.17711e-39
-0.055196811 0.393269 1.1530446 6.0849116e-39
-0.050663754 0.39441028 1.1563908 6.9139478e-39
-0.045788672 0.39285016 1.1518166 7.4671229e-39
-0.041095238 0.39267096 1.1512911 7.925206e-39
-0.036724262 0.39592215 1.1608235 1.1974593e-38
-0.032126322 0.39732331 1.1649317 1.3173128e-38
-0.027385777 0.39714 1.1643941 1.3266399e-38
-0.012959462 0.38964903 1.1424311 1.5303026e-38
-0.0083354535 0.3902379 1.1441576 1.6594482e-38
-0.0036879592 0.38982552 1.1429485 9.1251953e-39
0.00094686728 0.38824299 1.1383086 3.0453523e-39
0.0055600344 0.38777658 1.1369411 9.2199259e-39
0.010128708 0.38603741 1.1318419 1.7516078e-38
0.014669683 0.38465726 1.1277955 1.7794467e-38
0.019113053 0.38198286 1.1199542 1.7424611e-38
0.023686448 0.38243544 1.1212813 1.733206e-38
0.02814549 0.38119343 1.1176397 1.7701202e-38
0.032427743 0.37823409 1.108963 1.7885591e-38
0.03728899 0.38192636 1.1197886 1.7610084e-38
0.041471776 0.37862232 1.1101013 1.7793761e-38
0.051165231 0.38374263 1.1251138 1.7977783e-38
0.05622451 0.38713706 1.135066 1.7885951e-38
0.060235176 0.38334385 1.1239446 1.7979584e-38
0.065047808 0.38482925 1.1282997 1.8439127e-38
0.069265746 0.38283235 1.1224449 1.8253657e-38
0.07340765 0.38068762 1.1161567 1.8346569e-38
0.077926114 0.38063151 1.1159922 1.8623154e-38
0.082650326 0.38153136 1.1186304 1.8623517e-38
0.10005488 0.39653012 1.1626061 1.8072144e-38
0.11443873 0.39732331 1.1649317 1.8071064e-38
0.12101001 0.40346941 1.1829517 1.8255096e-38
0.13863288 0.39891922 1.1696109 1.8715353e-38
0.14337978 0.39891922 1.1696109 1.8623163e-38
0.15569621 0.39404917 1.155332 1.8531683e-38
0.16608791 0.39646924 1.1624275 1.843912e-38
0.16932377 0.39302957 1.1523426 1.8439848e-38
0.17474532 0.39471173 1.1572746 1.8440208e-38
0.1793873 0.39459109 1.1569209 1.853168e-38
0.18917042 0.4054969 1.1888962 1.8347289e-38
0.1898807 0.39689583 1.1636783 1.8163617e-38
0.19362143 0.39489284 1.1578056 1.8255815e-38
0.19892885 0.39610434 1.1613576 1.8439126e-38
0.20117348 0.39130235 1.1472785 1.8622798e-38
0.20642409 0.39243224 1.1505913 1.8346573e-38
0.21189888 0.39392895 1.1549795 1.8070346e-38
0.21635535 0.3935087 1.1537474 1.7794478e-38
0.22314622 0.39726219 1.1647525 1.788667e-38
0.22724411 0.3961651 1.1615359 1.8162892e-38
0.23285134 0.39769047 1.1660081 1.7886305e-38
0.23678134 0.39634752 1.1620708 1.8070343e-38
0.2410167 0.39555824 1.1597565 1.8162539e-38
0.2453853 0.39501363 1.1581599 1.7886308e-38
0.26637307 0.4054969 1.1888962 1.8069262e-38
0.2822735 0.41467869 1.2158167 1.7885591e-38
0.28551143 0.41222927 1.2086352 1.7885588e-38
0.28424537 0.40346941 1.1829517 1.7702992e-38
0.28904641 0.40346941 1.1829517 1.7610437e-38
0.29193163 0.40083891 1.1752392 1.7517521e-38
0.31909019 0.43108585 1.2639216 1.7701195e-38
0.32656413 0.43420282 1.2730604 1.7425327e-38
0.31077561 0.40677446 1.1926419 1.7885947e-38
0.32609543 0.42028064 1.2322414 1.7608998e-38
0.34149015 0.43347391 1.2709234 1.742425e-38
0.35334143 0.41702265 1.222689 1.7240221e-38
0.35709268 0.41561311 1.2185564 1.714838e-38
0.35977983 0.41302049 1.210955 1.714766e-38
0.36563024 0.4140802 1.214062 1.6963629e-38
0.37014204 0.41361591 1.2127007 1.6871795e-38
0.37566558 0.41427952 1.2146463 1.7146942e-38
0.3789537 0.41249269 1.2094074 1.6870356e-38
0.38490739 0.41361591 1.2127007 1.6871074e-38
0.36801806 0.39047393 1.1448497 1.6595201e-38
0.38002005 0.39818105 1.1674465 1.6503364e-38
0.37908792 0.392313 1.1502417 1.6594482e-38
0.38381451 0.39237261 1.1504165 1.6686319e-38
0.38760006 0.39148033 1.1478003 1.6962551e-38
0.41825682 0.41742712 1.223875 1.6594129e-38
0.42912036 0.42324278 1.2409261 1.6411537e-38
0.39903435 0.38900334 1.140538 1.6318262e-38
0.40142572 0.38684708 1.1342158 1.6041671e-38
0.40669918 0.38748562 1.136088 1.6317901e-38
0.41180438 0.38795134 1.1374536 1.6409377e-38
0.41805381 0.38947272 1.1419141 1.6317539e-38
0.42103717 0.38795134 1.1374536 1.6501572e-38
0.49417326 0.42723432 1.2526292 1.594948e-38
0.51066339 0.43699512 1.2812474 1.6133511e-38
0.52339226 0.44337296 1.2999469 1.5949478e-38
0.53463507 0.44837719 1.3146189 1.5857641e-38
0.54138052 0.4495481 1.3180521 1.5765806e-38
0.51787871 0.42582524 1.2484978 1.5949482e-38
0.5239827 0.42666957 1.2509733 1.5673253e-38
0.52113765 0.42028064 1.2322414 1.5857283e-38
0.53840715 0.43008065 1.2609745 1.6041314e-38
0.55965066 0.44284073 1.2983863 1.585692e-38
0.52301031 0.40619856 1.1909534 1.5764008e-38
0.53312731 0.4102644 1.2028743 1.5764012e-38
0.5558486 0.42386806 1.2427595 1.5672175e-38
0.56750649 0.42886633 1.2574142 1.5395949e-38
0.59096384 0.44261301 1.2977186 1.5396309e-38
0.58342999 0.43311039 1.2698575 1.5580699e-38
0.58436906 0.43000904 1.2607645 1.5580337e-38
0.58626419 0.42765886 1.2538739 1.5395946e-38
0.5886234 0.42568484 1.2480862 1.5488141e-38
0.59105802 0.4237985 1.2425555 1.5579977e-38
0.59347111 0.42192879 1.2370737 1.5395584e-38
0.5949918 0.41946137 1.2298393 1.5304109e-38
0.59659123 0.41709 1.2228866 1.5396307e-38
0.59923136 0.41547936 1.2181642 1.5304113e-38
0.60185122 0.41388109 1.2134782 1.5395953e-38
0.60416156 0.41209769 1.2082494 1.539559e-38
0.60683781 0.41059059 1.2038306 1.4013377e-38
0.60968775 0.40922412 1.1998242 1.0139008e-38
0.61339074 0.40844736 1.1975468 5.9916453e-39
0.61649573 0.40728772 1.1941468 7.6529533e-39
0.61649573 0.40728772 1.1941468 1.4012294e-38
-0.64155245 0.35705534 1.0345573 1.1154575e-38
-0.63822579 0.35754392 1.0359731 1.1154937e-38
-0.63402128 0.35754392 1.0359731 1.1339328e-38
-0.63189191 0.35872197 1.0393864 1.1338968e-38
-0.63087815 0.36055344 1.0446931 1.1247133e-38
-0.62967932 0.36230323 1.049763 1.1247133e-38
-0.62776905 0.36366469 1.0537078 1.1339328e-38
-0.62645704 0.36539376 1.0587177 1.1523721e-38
-0.62478125 0.36693314 1.0631781 1.1431884e-38
-0.62317926 0.36853749 1.0678266 1.189142e-38
-0.62112319 0.36989394 1.071757 1.1983616e-38
-0.61843681 0.37089154 1.0746474 1.189178e-38
-0.61608672 0.37210637 1.0781673 1.1984337e-38
-0.61380881 0.37338251 1.081865 1.1247494e-38
-0.61265731 0.37536716 1.0876154 9.2181126e-39
-0.61299855 0.37830186 1.0961186 5.7146829e-39
-0.61334515 0.38128278 1.1047556 4.7945161e-39
-0.61207682 0.38329631 1.1105899 8.2050341e-39
-0.60998541 0.38482046 1.115006 1.1707392e-38
-0.60715908 0.38590029 1.1181349 1.2446034e-38
-0.60458553 0.38715822 1.1217797 1.2538229e-38
-0.60244286 0.3887133 1.1262854 1.2721542e-38
-0.60082138 0.39063102 1.1318419 1.2814098e-38
-0.59936392 0.39268574 1.1377954 1.2722263e-38
-0.59743977 0.39446419 1.1429485 1.290701e-38
-0.59558839 0.39631894 1.1483226 1.30914e-38
-0.5929966 0.39770636 1.1523426 1.3275432e-38
-0.59192359 0.40014255 1.1594013 1.309176e-38
-0.58920318 0.40149522 1.1633207 1.3275794e-38
-0.58736992 0.40347913 1.1690689 1.3735693e-38
-0.58253527 0.40341684 1.1688884 1.3459825e-38
-0.58029997 0.40516838 1.1739635 1.3460184e-38
-0.58718997 0.41337302 1.1977363 1.3552019e-38
-0.58697194 0.41666892 1.207286 1.3643857e-38
-0.44073257 0.38324007 1.1104269 1.5025714e-38
-0.43469569 0.38189578 1.1065319 1.4842043e-38
-0.4312132 0.38279092 1.1091255 1.4842043e-38
-0.4214026 0.37802818 1.0953256 1.4842398e-38
-0.4136062 0.37499008 1.0865228 1.5026429e-38
-0.3651745 0.36195192 1.048745 1.521046e-38
-0.40432465 0.40548274 1.1748744 1.5026432e-38
-0.40023962 0.40617609 1.1768833 1.5303021e-38
-0.34319907 0.3751516 1.0869908 1.4749485e-38
-0.34044942 0.3769919 1.0923231 1.4750205e-38
-0.34008881 0.38156116 1.1055623 1.4474337e-38
-0.33501482 0.38089371 1.1036284 1.4197389e-38
-0.3276698 0.37759116 1.0940593 1.4105196e-38
-0.32132572 0.37536716 1.0876154 1.4196677e-38
-0.3422842 0.40541983 1.1746922 1.4104122e-38
-0.33941254 0.40769711 1.1812905 1.4012285e-38
-0.29831225 0.37978646 1.1004201 1.4196667e-38
-0.29359013 0.37945554 1.0994613 1.4196671e-38
-0.28646547 0.37596127 1.0893368 1.4104121e-38
-0.28285834 0.37704629 1.0924807 1.3920087e-38
-0.27502245 0.37846622 1.0965948 1.419703e-38
-0.27053273 0.37841141 1.096436 1.4289225e-38
-0.26623702 0.37863076 1.0970715 1.4381067e-38
-0.2629658 0.38033929 1.1020219 1.4013364e-38
-0.25755596 0.37896025 1.0980263 1.4290309e-38
-0.25339362 0.37940043 1.0993017 1.4104838e-38
-0.24889593 0.37934536 1.0991421 1.4380705e-38
-0.2458628 0.38156116 1.1055623 1.4474341e-38
-0.23651804 0.40391573 1.170334 1.4843478e-38
-0.2311251 0.40279496 1.1670866 1.4934955e-38
-0.22818239 0.40598676 1.1763349 1.4934958e-38
-0.2131103 0.38727298 1.1221122 1.511899e-38
-0.21601605 0.4011254 1.1622491 1.5026436e-38
-0.1940971 0.37688315 1.0920079 1.5395583e-38
-0.18876666 0.37509775 1.0868348 1.5304103e-38
-0.18430281 0.37499008 1.0865228 1.5488133e-38
-0.18061891 0.37650299 1.0909065 1.5580689e-38
-0.17578617 0.37563699 1.0883971 1.5212268e-38
-0.17171448 0.37639454 1.0905921 1.5304463e-38
-0.15134986 0.36989394 1.071757 1.5581043e-38
-0.14714591 0.37026086 1.0728199 1.567252e-38
-0.14269075 0.36999869 1.0720605 1.5580326e-38
-0.14069058 0.37628612 1.090278 1.5488492e-38
-0.14080785 0.38882899 1.1266207 1.5673246e-38
-0.13345511 0.38089371 1.1036284 1.604167e-38
-0.14243004 0.42062634 1.2187525 1.6041308e-38
-0.13846445 0.42362693 1.2274467 1.5673606e-38
-0.11911488 0.37802818 1.0953256 1.5949117e-38
-0.11570736 0.38144976 1.1052395 1.6225336e-38
-0.11197366 0.38402864 1.1127118 1.594911e-38
-0.12019433 0.42954642 1.2445982 1.5949111e-38
-0.10545249 0.39339519 1.1398511 1.6041663e-38
-0.099345617 0.38761768 1.1231109 1.6410442e-38
-0.09700352 0.39667997 1.1493685 1.613386e-38
-0.092945524 0.39928651 1.1569209 1.6134944e-38
-0.086311288 0.39051425 1.1315036 1.6041674e-38
-0.081560589 0.38975698 1.1293095 1.6041312e-38
-0.076805405 0.38888687 1.1267884 1.5764721e-38
-0.072189331 0.38865548 1.1261179 1.3737142e-38
-0.068289354 0.39250877 1.1372827 1.0969468e-38
-0.064311266 0.39643922 1.148671 6.8217507e-39
-0.058854628 0.3911573 1.1333668 6.453334e-39
-0.054133274 0.39028093 1.1308275 6.4536913e-39
-0.049781721 0.39215532 1.1362586 7.1908962e-39
-0.044654146 0.3876752 1.1232775 7.4674887e-39
-0.040322635 0.3898733 1.1296465 7.5582298e-39
-0.036251798 0.39547917 1.1458893 1.0870409e-38
-0.031817887 0.39819124 1.1537474 1.2896537e-38
-0.027151925 0.3984341 1.1544511 1.2896897e-38
-0.01271766 0.38692889 1.1211152 1.4658015e-38
-0.0081784846 0.38744527 1.1226113 1.6686682e-38
-0.0036207265 0.38727298 1.1221122 9.1255597e-39
0.00093187543 0.38664263 1.1202857 3.1371878e-39
0.0054777735 0.38658541 1.1201199 9.2202833e-39
0.010004567 0.38584331 1.1179698 1.7885224e-38
0.014529003 0.38550174 1.1169801 1.7426046e-38
0.018958803 0.38340878 1.1109158 1.7609363e-38
0.02351925 0.38425454 1.1133662 1.7425693e-38
0.027951553 0.38307151 1.1099385 1.7793398e-38
0.031849261 0.37590718 1.0891801 1.7885589e-38
0.036998954 0.38346505 1.1110787 1.7794471e-38
0.040521134 0.37434539 1.0846548 1.7610086e-38
0.050885431 0.38618547 1.1189611 1.806962e-38
0.055467755 0.38647106 1.1197886 1.8161823e-38
0.059817802 0.38521758 1.1161567 1.8346929e-38
0.064710274 0.38738781 1.1224449 1.8070704e-38
0.069348 0.38784784 1.1237777 1.8070701e-38
0.073234901 0.38431105 1.11353 1.8255093e-38
0.077719904 0.38414156 1.1130389 1.853132e-38
0.10025502 0.40205121 1.1649317 1.797959e-38
0.10555137 0.40422815 1.1712393 1.7795554e-38
0.1097784 0.40229881 1.1656491 1.8163975e-38
0.11496945 0.40391573 1.170334 1.8163618e-38
0.12101001 0.40827045 1.1829517 1.8623521e-38
0.12612636 0.40929368 1.1859164 1.853204e-38
0.12805106 0.40026516 1.1597565 1.8623873e-38
0.1316288 0.39686069 1.1498923 1.8623514e-38
0.13975559 0.40693519 1.1790829 1.8623158e-38
0.1450152 0.40827045 1.1829517 1.8530968e-38
0.14625137 0.39855567 1.1548034 1.8347655e-38
0.1510995 0.39898166 1.1560377 1.8899387e-38
0.16454679 0.39746439 1.1516415 1.871571e-38
0.16746308 0.39333597 1.1396794 1.8530961e-38
0.17305236 0.39553905 1.1460627 1.8347649e-38
0.19223967 0.3967402 1.149543 1.8439845e-38
0.19702479 0.3969813 1.1502417 1.8623879e-38
0.1994507 0.39256772 1.1374536 1.8531322e-38
0.20548721 0.39529967 1.1453693 1.8439488e-38
0.21119007 0.39728308 1.1511161 1.8254377e-38
0.21556693 0.3967402 1.149543 1.8070705e-38
0.22252999 0.40087923 1.1615359 1.8162901e-38
0.22724411 0.40087923 1.1615359 1.816218e-38
0.23267217 0.40211308 1.1651109 1.8253657e-38
0.23634601 0.40032646 1.1599343 1.8162183e-38
0.24009722 0.39873812 1.155332 1.8438767e-38
0.2448609 0.39885986 1.1556847 1.8530236e-38
0.25008571 0.39971405 1.1581599 1.7885945e-38
0.25659174 0.40254673 1.1663674 1.7793755e-38
0.2650412 0.40827045 1.1829517 1.7977785e-38
0.27539313 0.41666892 1.207286 1.7978148e-38
0.28313741 0.42089736 1.2195379 1.8069267e-38
0.28725404 0.41968051 1.216012 1.7609724e-38
0.29247111 0.42008534 1.217185 1.7517526e-38
0.29904574 0.42239425 1.223875 1.7701561e-38
0.30997586 0.43067923 1.2478805 1.7424611e-38
0.31813419 0.4349086 1.2601349 1.7609001e-38
0.32503378 0.43731061 1.2670947 1.7516807e-38
0.32277545 0.42750832 1.2386929 1.7516808e-38
0.329528 0.42975837 1.2452123 1.7424966e-38
0.33904281 0.43548846 1.2618151 1.733205e-38
0.34239489 0.43325001 1.2553293 1.7515719e-38
0.34893611 0.43505341 1.2605546 1.733205e-38
0.34974292 0.42975837 1.2452123 1.7516082e-38
0.3552641 0.43032458 1.2468529 1.7516082e-38
0.35837677 0.42799851 1.2401131 1.7240218e-38
0.36016506 0.42417708 1.2290407 1.6871437e-38
0.36338344 0.42212129 1.2230841 1.7055467e-38
0.36816892 0.42191681 1.2224916 1.696363e-38
0.37482512 0.42383307 1.2280439 1.6871795e-38
0.38110733 0.4252817 1.2322414 1.7055108e-38
0.38047317 0.41907471 1.2142568 1.6963271e-38
0.38845405 0.42239425 1.223875 1.6871432e-38
0.39611059 0.4252817 1.2322414 1.6779951e-38
0.36214989 0.3839722 1.1125482 1.6595559e-38
0.37130308 0.38882899 1.1266207 1.6687755e-38
0.37948969 0.39256772 1.1374536 1.6687036e-38
0.382898 0.39133307 1.1338761 1.6686683e-38
0.38686255 0.39068943 1.1320112 1.6594125e-38
0.39333886 0.39256772 1.1374536 1.6594845e-38
0.39795524 0.39256772 1.1374536 1.6687038e-38
0.40184712 0.39186126 1.1354065 1.6410811e-38
0.40798485 0.39333597 1.1396794 1.6502649e-38
0.41180438 0.39256772 1.1374536 1.6502293e-38
0.41912848 0.39512035 1.1448497 1.6317542e-38
0.42198816 0.39345443 1.1400228 1.6410096e-38
0.42803293 0.39476219 1.1438118 1.6410098e-38
0.47499734 0.41554242 1.204022 1.5949117e-38
0.47722757 0.41324228 1.1973574 1.5949478e-38
0.48453927 0.41534427 1.2034479 1.6041672e-38
0.56021893 0.47542411 1.3775275 1.5857641e-38
0.55849314 0.46927637 1.3597146 1.5949478e-38
0.50456566 0.41981536 1.2164028 1.6133514e-38
0.50860357 0.41907471 1.2142568 1.6041677e-38
0.51050222 0.41660249 1.2070936 1.5581416e-38
0.51278496 0.41448775 1.2009661 1.5857284e-38
0.50321096 0.40291917 1.1674465 1.6040595e-38
0.50630951 0.40161863 1.1636783 1.567253e-38
0.51538932 0.40504277 1.1735996 1.5579974e-38
0.52718037 0.41051546 1.1894566 1.5579975e-38
0.53920859 0.4160718 1.2055558 1.5579977e-38
0.54979187 0.4204233 1.2181642 1.557998e-38
0.56114632 0.4252817 1.2322414 1.5488504e-38
0.57618183 0.43281943 1.2540816 1.5580699e-38
0.58021432 0.43203223 1.2518008 1.5488143e-38
0.58269352 0.43011206 1.2462372 1.530375e-38
0.58582276 0.42870072 1.2421478 1.5488141e-38
0.58797002 0.42660096 1.2360638 1.5580336e-38
0.5897131 0.42424595 1.2292403 1.5303749e-38
0.59181929 0.4221895 1.2232817 1.5120078e-38
0.59409624 0.42028806 1.2177724 1.5119719e-38
0.59692627 0.41880605 1.2134782 1.5120079e-38
0.60021573 0.41766798 1.2101808 1.5303393e-38
0.60329503 0.41640332 1.2065165 1.5395587e-38
0.60539389 0.41448775 1.2009661 1.5303391e-38
0.60891575 0.4135693 1.198305 1.5026088e-38
0.61271232 0.4128505 1.1962223 1.2168747e-38
0.61571878 0.41161481 1.1926419 7.1004984e-39
-0.63875932 0.35968131 1.0300531 1.1154574e-38
-0.63483793 0.35982817 1.0304737 1.1062737e-38
-0.63194591 0.36056432 1.0325819 1.1247488e-38
-0.62904209 0.36130348 1.0346987 1.1155296e-38
-0.62646943 0.3622441 1.0373925 1.1154938e-38
-0.62491363 0.36378938 1.0418179 1.124749e-38
-0.62308615 0.3651965 1.0458477 1.1431878e-38
-0.62133068 0.36666539 1.0500542 1.1431881e-38
-0.62033844 0.36860812 1.0556178 1.1615912e-38
-0.620031 0.37098759 1.0624321 1.189178e-38
-0.61840934 0.37260854 1.0670741 1.1983979e-38
-0.61642438 0.3740319 1.0711504 1.1615198e-38
-0.61442423 0.3754662 1.0752579 1.0418089e-38
-0.61214679 0.37675038 1.0789355 6.8231843e-39
-0.61020285 0.37825978 1.083258 5.161149e-39
-0.60929358 0.38043711 1.0894935 6.7291978e-39
-0.6104058 0.38391772 1.0994613 1.0417372e-38
-0.61019707 0.38661268 1.1071792 1.2537513e-38
-0.60783696 0.38797438 1.1110787 1.2629708e-38
-0.60501462 0.38905925 1.1141856 1.2445674e-38
-0.60244316 0.39032298 1.1178046 1.2353479e-38
-0.59976614 0.39153695 1.1212813 1.253787e-38
-0.59751624 0.39305049 1.1256156 1.2630067e-38
-0.59507126 0.394458 1.1296465 1.2814457e-38
-0.59243131 0.39575711 1.1333668 1.2998489e-38
-0.58986247 0.39712447 1.1372827 1.3091041e-38
-0.58692193 0.39826116 1.140538 1.3091401e-38
-0.58831978 0.40238318 1.1523426 1.2999566e-38
-0.58748806 0.4050341 1.1599343 1.30914e-38
-0.5850212 0.40659145 1.1643941 1.3459823e-38
-0.58199614 0.40778306 1.1678067 1.3551659e-38
-0.58047998 0.41006011 1.1743277 1.3367269e-38
-0.43473881 0.38247359 1.0953256 1.4750922e-38
-0.42200163 0.37901899 1.0854324 1.4750562e-38
-0.3677727 0.36881381 1.0562068 1.5026425e-38
-0.40621579 0.41216987 1.1803696 1.4935312e-38
-0.34060723 0.37669671 1.0787818 1.4566171e-38
-0.3393234 0.38016358 1.0887102 1.456617e-38
-0.33964244 0.38554141 1.1041112 1.4382141e-38
-0.32757512 0.38192105 1.0937432 1.4288871e-38
-0.34212494 0.40999651 1.1741456 1.4104115e-38
-0.29693118 0.38247359 1.0953256 1.4012281e-38
-0.29206324 0.38192105 1.0937432 1.3920088e-38
-0.2849077 0.3783139 1.0834131 1.4012283e-38
-0.28103346 0.37901899 1.0854324 1.4012641e-38
-0.27387208 0.38131508 1.0920079 1.4197031e-38
-0.26998532 0.38208663 1.0942175 1.4197033e-38
-0.26612133 0.38291678 1.0965948 1.4012644e-38
-0.26361814 0.38576645 1.1047556 1.4196675e-38
-0.25789261 0.38391772 1.0994613 1.4197034e-38
-0.25442803 0.38542899 1.1037893 1.410448e-38
-0.22205399 0.39153695 1.1212813 1.4842764e-38
-0.21445413 0.38604811 1.1055623 1.4842769e-38
-0.21254326 0.39078456 1.1191266 1.5026797e-38
-0.2071439 0.38917378 1.1145136 1.5119711e-38
-0.19913222 0.38247359 1.0953256 1.5118633e-38
-0.19339971 0.37994504 1.0880843 1.5210829e-38
-0.1878498 0.37766537 1.0815558 1.5210829e-38
-0.18346028 0.37766537 1.0815558 1.5303743e-38
-0.17960958 0.37880176 1.0848103 1.5395937e-38
-0.17493114 0.37820566 1.0831031 1.5212265e-38
-0.1704378 0.37798935 1.0824836 1.5304459e-38
-0.16474895 0.37504008 1.0740376 1.5672521e-38
-0.16038993 0.37504008 1.0740376 1.6133139e-38
-0.15680952 0.37691152 1.0793971 1.567252e-38
-0.15160739 0.37488052 1.0735806 1.567324e-38
-0.14727113 0.37493369 1.073733 1.5764358e-38
-0.14291336 0.37493369 1.073733 1.5672521e-38
-0.13972475 0.37809747 1.0827934 1.5856915e-38
-0.13817592 0.38604811 1.1055623 1.5397018e-38
-0.13306716 0.38425255 1.1004201 1.5765441e-38
-0.12880702 0.38486788 1.1021824 1.604131e-38
-0.12382902 0.38330543 1.0977079 1.5765081e-38
-0.11911488 0.38247359 1.0953256 1.5765083e-38
-0.11574116 0.38604811 1.1055623 1.5765439e-38
-0.11184216 0.38808832 1.111405 1.6133504e-38
-0.10793359 0.39026535 1.1176397 1.6317895e-38
-0.10319957 0.38951784 1.1154989 1.6226058e-38
-0.098701373 0.38963264 1.1158277 1.6226415e-38
-0.095695995 0.39593494 1.1338761 1.6318254e-38
-0.090632617 0.393929 1.1281315 1.6042031e-38
-0.085329324 0.39061132 1.1186304 1.6042391e-38
-0.080765463 0.39049593 1.1183 1.6134232e-38
-0.076170556 0.39020774 1.1174747 1.5857281e-38
-0.071582429 0.38992 1.1166506 1.3369803e-38
-0.067428395 0.39211771 1.1229444 9.4035885e-39
-0.062992357 0.39287525 1.1251138 7.0983376e-39
-0.058080796 0.39055362 1.1184652 7.1901787e-39
-0.053541478 0.39055362 1.1184652 7.0990579e-39
-0.049031131 0.39078456 1.1191266 7.0994152e-39
-0.043542963 0.38247359 1.0953256 7.5596829e-39
-0.040000338 0.39130515 1.1206174 6.5462442e-39
-0.035452284 0.39130515 1.1206174 8.7549639e-39
-0.031195126 0.39498842 1.1311655 1.0872565e-38
-0.026454067 0.39275852 1.1247795 1.1240266e-38
-0.012622333 0.38854462 1.1127118 1.4842768e-38
-0.0081087472 0.38865885 1.1130389 1.6778519e-38
-0.003590394 0.38854462 1.1127118 9.401785e-39
0.00092462404 0.38814527 1.1115682 3.3208504e-39
0.0054343566 0.38803133 1.1112418 8.9422474e-39
0.0099080028 0.38661268 1.1071792 1.7792665e-38
0.014399412 0.38655615 1.1070173 1.7701558e-38
0.018711694 0.38286135 1.096436 1.7517528e-38
0.023235638 0.38408506 1.0999405 1.7702637e-38
0.027507942 0.38142511 1.0923231 1.7794117e-38
0.031549696 0.37675038 1.0789355 1.8069981e-38
0.036290608 0.38054663 1.0898073 1.8161816e-38
0.040147271 0.37525302 1.0746474 1.7885952e-38
0.043568734 0.36732772 1.0519509 1.797779e-38
0.050765384 0.38980499 1.1163212 1.7885231e-38
0.055369481 0.39032298 1.1178046 1.8161463e-38
0.059950374 0.39061132 1.1186304 1.843769e-38
0.064748675 0.39217585 1.1231109 1.8162898e-38
0.069399506 0.39270017 1.1246125 1.8347646e-38
0.077492051 0.38751942 1.1097758 1.853168e-38
0.095424339 0.40634146 1.1636783 1.8439849e-38
0.10047145 0.4076573 1.1674465 1.843949e-38
0.10591184 0.41037837 1.1752392 1.8440564e-38
0.11032194 0.40904495 1.1714205 1.8255812e-38
0.11564879 0.4110803 1.1772494 1.8163621e-38
0.12175193 0.41560408 1.1902045 1.8255817e-38
0.12666205 0.41586557 1.1909534 1.8439843e-38
0.13018492 0.41172051 1.1790829 1.8439483e-38
0.13233227 0.40367347 1.1560377 1.853132e-38
0.13895488 0.40936166 1.1723275 1.8715714e-38
0.14360163 0.40904495 1.1714205 1.8255458e-38
0.14651956 0.40398189 1.1569209 1.8255456e-38
0.19082065 0.389002 1.1140215 1.8439486e-38
0.19571632 0.38974753 1.1161567 1.8070702e-38
0.20312105 0.39534283 1.1321805 1.8163252e-38
0.20700404 0.39398772 1.1282997 1.8346566e-38
0.20977007 0.39061132 1.1186304 1.8254373e-38
0.21336429 0.38888755 1.1136938 1.8253656e-38
0.21750031 0.38820228 1.1117314 1.8069981e-38
0.22178432 0.38780364 1.1105899 1.8162178e-38
0.22589405 0.38712221 1.1086383 1.8162182e-38
0.23195593 0.38974753 1.1161567 1.8161819e-38
0.2372203 0.39095792 1.1196231 1.8253289e-38
0.24642906 0.39850128 1.1412256 1.8069978e-38
0.25121221 0.39874169 1.1419141 1.7977786e-38
0.25857678 0.40299657 1.1540992 1.7885592e-38
0.282047 0.42420691 1.2148412 1.7885236e-38
0.28753114 0.42502531 1.217185 1.7885593e-38
0.31983772 0.44237909 1.2668827 1.7424968e-38
0.32530603 0.44282371 1.2681559 1.7516444e-38
0.32619107 0.43711269 1.2518008 1.7516805e-38
0.33187515 0.43790916 1.2540816 1.7425324e-38
0.33921242 0.44082999 1.2624464 1.7516803e-38
0.34330568 0.43951082 1.2586684 1.7516442e-38
0.348414 0.43951082 1.2586684 1.7608632e-38
0.34934071 0.43431205 1.2437803 1.7607916e-38
0.35438862 0.43431205 1.2437803 1.7516441e-38
0.35837677 0.43303153 1.2401131 1.7424245e-38
0.36198676 0.43133587 1.2352571 1.7423529e-38
0.36503464 0.42902589 1.2286417 1.714802e-38
0.36882403 0.4276379 1.224667 1.7055466e-38
0.37355268 0.42736137 1.223875 1.6963629e-38
0.37913269 0.42805335 1.2258567 1.7056182e-38
0.37980309 0.4232561 1.2121183 1.6779956e-38
0.38845405 0.42736137 1.223875 1.6872507e-38
0.40028018 0.4348121 1.2452123 1.6963622e-38
0.38255668 0.41037837 1.1752392 1.6687042e-38
0.37851286 0.40104029 1.1484967 1.6872152e-38
0.38317406 0.40104029 1.1484967 1.6871789e-38
0.38410607 0.39718413 1.1374536 1.6687399e-38
0.38593924 0.39434031 1.1293095 1.6778154e-38
0.39198434 0.39581636 1.1335366 1.6685963e-38
0.39593273 0.39516553 1.1316727 1.6594846e-38
0.40530035 0.39534283 1.1321805 1.6502646e-38
0.40971151 0.39516553 1.1316727 1.6318622e-38
0.41642076 0.39718413 1.1374536 1.6410461e-38
0.41921067 0.39546111 1.1325192 1.6226068e-38
0.42241687 0.39416394 1.1288043 1.6226067e-38
0.42541245 0.39270017 1.1246125 1.6226065e-38
0.47628501 0.42156872 1.207286 1.6317179e-38
0.47624841 0.41724393 1.1949006 1.6224626e-38
0.48600709 0.42150152 1.2070936 1.5949478e-38
0.56144476 0.48206738 1.3805417 1.5858001e-38
0.55214661 0.46939942 1.3442633 1.594948e-38
0.51113552 0.4302828 1.2322414 1.5949478e-38
0.51833004 0.43211138 1.237478 1.6133509e-38
0.51402628 0.42441124 1.2154263 1.6041677e-38
0.55348903 0.42441124 1.2154263 1.5581059e-38
0.56230354 0.42736137 1.223875 1.5672891e-38
0.57310736 0.43175852 1.2364676 1.5487783e-38
0.5781256 0.43175852 1.2364676 1.530447e-38
0.57795238 0.42791477 1.2254598 1.5396666e-38
0.58236033 0.42749959 1.2242708 1.5488143e-38
0.58562446 0.42625886 1.2207177 1.5396309e-38
0.58792448 0.42434311 1.2152313 1.5028245e-38
0.59058142 0.42271465 1.2105677 1.5028244e-38
0.59359628 0.42136714 1.2067088 1.5211557e-38
0.59716117 0.42042899 1.204022 1.5303033e-38
0.60042447 0.4192954 1.2007757 1.530303e-38
0.60290724 0.4176394 1.1960332 1.5027523e-38
0.60689849 0.41704646 1.1943352 1.5119362e-38
0.61107093 0.41658643 1.1930177 1.4935332e-38
0.61465371 0.4157348 1.1905788 1.3645666e-38
-0.63599032 0.36228451 1.025588 1.1154574e-38
-0.63294262 0.36292362 1.0273973 1.1063456e-38
-0.62954175 0.36336741 1.0286536 1.124713e-38
-0.62672943 0.36415908 1.0308948 1.1246772e-38
-0.62424552 0.36515349 1.0337099 1.1338967e-38
-0.62174803 0.36615336 1.0365404 1.143152e-38
-0.61957705 0.36736047 1.0399575 1.1523715e-38
-0.61764705 0.36872801 1.0438288 1.1523717e-38
-0.61570269 0.37010574 1.0477291 1.1707751e-38
-0.61528212 0.37242502 1.0542948 1.1707751e-38
-0.61563271 0.37524682 1.0622829 1.097019e-38
-0.61503214 0.37752458 1.0687311 8.5723859e-39
-0.61311805 0.37902269 1.0729721 5.1633014e-39
-0.61075419 0.38026223 1.076481 4.7019687e-39
-0.60837483 0.38150987 1.0800129 8.5723901e-39
-0.60693532 0.3833693 1.0852767 1.1338975e-38
-0.60626775 0.38574705 1.0920079 1.244496e-38
-0.60629576 0.38860565 1.1001004 1.2628991e-38
-0.60437781 0.39025015 1.1047556 1.2537511e-38
-0.60209054 0.39167899 1.1088006 1.2445313e-38
-0.60013938 0.39334965 1.11353 1.2537869e-38
-0.59773004 0.39474306 1.1174747 1.253823e-38
-0.59521538 0.39608771 1.1212813 1.2722261e-38
-0.59215558 0.39708748 1.1241115 1.2906294e-38
-0.5888173 0.39791462 1.126453 1.2998852e-38
-0.58529055 0.39862636 1.1284678 1.299885e-38
-0.58244693 0.39981824 1.1318419 1.3183237e-38
-0.57845873 0.40023708 1.1330277 1.3183237e-38
-0.58578283 0.40855244 1.1565675 1.3367629e-38
-0.58700734 0.41271362 1.1683474 1.3367271e-38
-0.58226562 0.41271362 1.1683474 1.3459106e-38
-0.44699243 0.38985193 1.1036284 1.4749486e-38
-0.42864183 0.37763119 1.0690329 1.4749485e-38
-0.42878348 0.38161874 1.0803212 1.465873e-38
-0.42139247 0.37891531 1.072668 1.4750927e-38
-0.41727549 0.37913015 1.0732763 1.4750921e-38
-0.41175213 0.37805825 1.0702418 1.4565809e-38
-0.41089365 0.38129228 1.0793971 1.4841678e-38
-0.39601129 0.37144226 1.0515126 1.4933876e-38
-0.36695361 0.37226951 1.0538545 1.4934591e-38
-0.40602589 0.41676548 1.1798178 1.5027509e-38
-0.3433224 0.38911453 1.1015409 1.4473975e-38
-0.29513782 0.38458213 1.0887102 1.4104477e-38
-0.28980243 0.3833693 1.0852767 1.3920086e-38
-0.28216198 0.37902269 1.0729721 1.3920444e-38
-0.26951787 0.38585833 1.0923231 1.4198112e-38
-0.26581332 0.38691899 1.0953256 1.4013718e-38
-0.26327237 0.38973829 1.1033068 1.4381783e-38
-0.25778028 0.3882108 1.0989826 1.4565459e-38
-0.25320977 0.38804182 1.0985042 1.4565456e-38
-0.23438711 0.39387101 1.115006 1.4842403e-38
-0.2304728 0.39491794 1.1179698 1.4658372e-38
-0.22640355 0.39573604 1.1202857 1.4934598e-38
-0.22084379 0.39392903 1.1151702 1.4843124e-38
-0.2151453 0.39179376 1.1091255 1.4842764e-38
-0.21194799 0.39421937 1.1159922 1.4659091e-38
-0.20632383 0.39213845 1.1101013 1.4842406e-38
-0.20002934 0.38866213 1.1002603 1.4842408e-38
-0.19468682 0.38691899 1.0953256 1.4473625e-38
-0.18901086 0.38441628 1.0882407 1.5118636e-38
-0.18401231 0.38320449 1.0848103 1.5488133e-38
-0.18035904 0.38480347 1.0893368 1.5579966e-38
-0.17543308 0.3836993 1.086211 1.5395933e-38
-0.17090207 0.38342425 1.0854324 1.5580326e-38
-0.1603217 0.37923768 1.0735806 1.5949105e-38
-0.15113589 0.37805825 1.0702418 1.5857274e-38
-0.14228778 0.37763119 1.0690329 1.6040226e-38
-0.11911488 0.38691899 1.0953256 1.6133144e-38
-0.11594433 0.39122063 1.1075031 1.6133141e-38
-0.11185858 0.39265659 1.1115682 1.6042024e-38
-0.1076317 0.39369705 1.1145136 1.6133865e-38
-0.10257988 0.39167899 1.1088006 1.6226061e-38
-0.098425753 0.39306056 1.1127118 1.6134223e-38
-0.094507046 0.39556044 1.1197886 1.6133864e-38
-0.089301936 0.39265659 1.1115682 1.6226061e-38
-0.084840439 0.39288735 1.1122214 1.6226064e-38
-0.080243938 0.39248374 1.1110787 1.6133868e-38
-0.075601459 0.39179376 1.1091255 1.5395943e-38
-0.070902683 0.39070624 1.1060469 1.3093221e-38
-0.066941865 0.39381301 1.1148418 8.2990472e-39
-0.06220657 0.39248374 1.1110787 7.3752818e-39
-0.057069082 0.3882108 1.0989826 7.2834492e-39
-0.052939273 0.39064917 1.1058853 7.1908934e-39
-0.047891367 0.38613689 1.0931116 7.4674761e-39
-0.042720929 0.3796145 1.0746474 7.2834492e-39
-0.039852865 0.39439377 1.1164858 6.5458869e-39
-0.034996439 0.39076331 1.1062084 7.1905319e-39
-0.030758541 0.39398706 1.1153345 8.5727334e-39
-0.026124166 0.39236856 1.1107527 8.9393481e-39
-0.021584481 0.39179376 1.1091255 1.0135721e-38
-0.012511997 0.38962474 1.1029853 1.5488134e-38
-0.0080284858 0.38928446 1.1020219 1.6594483e-38
-0.0035538322 0.38905793 1.1013807 9.8627618e-39
0.0009145533 0.38837993 1.0994613 3.5055989e-39
0.0053673922 0.38770428 1.0975487 8.8489672e-39
0.0097455299 0.38469279 1.0890235 1.7792302e-38
0.014187809 0.38530242 1.0907493 1.7793757e-38
0.018455112 0.3820003 1.0814013 1.7885951e-38
0.022863602 0.38232797 1.0823289 1.779447e-38
0.02717468 0.38118359 1.0790893 1.7886668e-38
0.03126454 0.37768453 1.0691838 1.7978864e-38
0.035964459 0.38150987 1.0800129 1.8254012e-38
0.039735533 0.37572131 1.0636262 1.8162178e-38
0.05500403 0.39225346 1.1104269 1.7886312e-38
0.059888434 0.39474306 1.1174747 1.7886312e-38
0.064883426 0.3975597 1.1254483 1.834693e-38
0.069856077 0.39987803 1.1320112 1.8530597e-38
0.1007511 0.41354325 1.1706959 1.8438764e-38
0.10591184 0.41514811 1.1752392 1.8348009e-38
0.11047579 0.41437623 1.1730541 1.8163619e-38
0.11539757 0.41495487 1.1746922 1.8348011e-38
0.12074587 0.41696042 1.1803696 1.8163618e-38
0.1254973 0.41683045 1.1800017 1.8440205e-38
0.12878098 0.41201419 1.1663674 1.8440206e-38
0.13020493 0.40180051 1.1374536 1.8347653e-38
0.13899793 0.41424787 1.1726906 1.8440567e-38
0.14562939 0.40619445 1.1498923 1.8255452e-38
0.18751341 0.39608771 1.1212813 1.807214e-38
0.19037245 0.39259896 1.111405 1.8255096e-38
0.19597635 0.39480132 1.1176397 1.8162182e-38
0.20251535 0.39874521 1.1288043 1.8162896e-38
0.20617443 0.39696959 1.1237777 1.8162535e-38
0.20930618 0.39427748 1.1161567 1.8253294e-38
0.21270721 0.39219594 1.1102641 1.8069622e-38
0.21664138 0.39116341 1.1073411 1.8070341e-38
0.22431734 0.38888821 1.1009002 1.7610087e-38
0.22992212 0.39082041 1.1063701 1.7793757e-38
0.23465239 0.39122063 1.1075031 1.7977066e-38
0.23914722 0.39122063 1.1075031 1.7608645e-38
0.24374902 0.39139238 1.1079893 1.7793755e-38
0.24755746 0.3903071 1.1049169 1.7702278e-38
0.25130826 0.38917115 1.1017013 1.7701561e-38
0.25429934 0.38691899 1.0953256 1.7609005e-38
0.25640771 0.38342425 1.0854324 1.7608645e-38
0.26051414 0.382985 1.0841888 1.7700836e-38
0.31723657 0.44388118 1.2565794 1.7517526e-38
0.32287231 0.44461915 1.2586684 1.7517527e-38
0.34723005 0.43670544 1.2362657 1.7331691e-38
0.36263761 0.43713373 1.237478 1.7516079e-38
0.37286511 0.43734819 1.2380852 1.714802e-38
0.38310266 0.43756285 1.2386929 1.6963989e-38
0.38016829 0.4285872 1.2132838 1.6687402e-38
0.38312769 0.42640054 1.2070936 1.6964346e-38
0.39202696 0.43079641 1.2195379 1.7332048e-38
0.38315144 0.41579357 1.1770663 1.714766e-38
0.37978032 0.40706 1.1523426 1.6963633e-38
0.3850432 0.40768051 1.1540992 1.7055468e-38
0.38226825 0.39987803 1.1320112 1.6778876e-38
0.39504698 0.39886415 1.1291411 1.6778164e-38
0.40271074 0.3973825 1.1249466 1.6594846e-38
0.40612981 0.39626378 1.1217797 1.6410461e-38
0.41640761 0.3973825 1.1249466 1.6501574e-38
0.41700765 0.39363912 1.1143495 1.6317901e-38
0.42109641 0.39323395 1.1132026 1.6410098e-38
0.42905983 0.39225346 1.1104269 1.6409739e-38
0.55776525 0.49434087 1.3994253 1.6409735e-38
0.55930948 0.4907127 1.3891543 1.6593767e-38
0.56422269 0.49008322 1.3873724 1.6317901e-38
0.51787871 0.44102642 1.2484978 1.5949481e-38
0.52967936 0.41087481 1.163142 1.567325e-38
0.55274266 0.42497763 1.2030654 1.5580337e-38
0.55762535 0.42497763 1.2030654 1.5488141e-38
0.56376225 0.42592517 1.2057478 1.5304469e-38
0.57257694 0.42886212 1.214062 1.5396665e-38
0.57741165 0.42879337 1.2138674 1.5672533e-38
0.58112687 0.42790148 1.2113426 1.5488503e-38
0.58492011 0.42708147 1.2090212 1.5212278e-38
0.58813637 0.42585737 1.2055558 1.4936048e-38
0.59133422 0.42464024 1.2021103 1.5027882e-38
0.59460801 0.42349711 1.1988742 1.4935686e-38
0.59729826 0.42196026 1.1945236 1.5119359e-38
0.59921539 0.41990644 1.1887095 1.5027883e-38
0.60451442 0.42023635 1.1896434 1.4843496e-38
0.60876864 0.41984051 1.1885229 1.4935332e-38
0.6119591 0.41872305 1.1853595 1.5026809e-38
-0.63230717 0.36432469 1.0196486 1.106238e-38
-0.62944049 0.36506218 1.0217127 1.1155294e-38
-0.62681651 0.36595115 1.0242006 1.1246771e-38
-0.62460315 0.36709335 1.0273973 1.1338967e-38
-0.62237602 0.36824268 1.030614 1.1430802e-38
-0.62005019 0.36934882 1.0337099 1.1430804e-38
-0.61754119 0.3703602 1.0365404 1.1431521e-38
-0.61501843 0.37137711 1.0393864 1.1615912e-38
-0.61281919 0.37260479 1.0428225 1.133933e-38
-0.61204332 0.37472099 1.048745 9.8649198e-39
-0.61262417 0.37770328 1.0570917 6.7288348e-39
-0.61295545 0.38057271 1.0651225 4.7008897e-39
-0.61155796 0.38240188 1.0702418 6.4540374e-39
-0.60954082 0.383867 1.0743424 9.9563937e-39
-0.60716224 0.38512397 1.0778604 1.1983977e-38
-0.6045953 0.38627887 1.0810925 1.216873e-38
-0.60244435 0.38771832 1.0851213 1.2260929e-38
-0.60088241 0.38956088 1.090278 1.2352764e-38
-0.59947908 0.39153436 1.0958012 1.235348e-38
-0.59780055 0.39335623 1.1009002 1.2445316e-38
-0.59593219 0.3950797 1.1057237 1.2630066e-38
-0.59352499 0.39646941 1.1096132 1.253823e-38
-0.59205866 0.39851367 1.1153345 1.2630426e-38
-0.58883327 0.39939624 1.1178046 1.2999208e-38
-0.58594036 0.40051982 1.1209491 1.281518e-38
-0.58121884 0.40040123 1.1206174 1.299885e-38
-0.57675612 0.40046051 1.1207832 1.3182879e-38
-0.57518768 0.40254626 1.1266207 1.3367269e-38
-0.55994952 0.39502203 1.1055623 1.3367632e-38
-0.54115915 0.38485003 1.0770936 1.3459468e-38
-0.44260508 0.39046058 1.092796 1.4565452e-38
-0.43211976 0.38506916 1.0777068 1.4565454e-38
-0.4311212 0.38810772 1.086211 1.4658011e-38
-0.42097494 0.382889 1.0716052 1.4658011e-38
-0.41715723 0.38337737 1.0729721 1.4750202e-38
-0.41210169 0.38272649 1.0711504 1.4658007e-38
-0.41130412 0.38605833 1.0804753 1.4566888e-38
-0.3963967 0.37607548 1.0525359 1.4750204e-38
-0.39763799 0.38556311 1.0790893 1.5026436e-38
-0.3945519 0.38683122 1.0826385 1.4934958e-38
-0.36968094 0.37934524 1.0616871 1.4934593e-38
-0.40482724 0.42030933 1.1763349 1.4842401e-38
-0.30099556 0.3743062 1.0475842 1.3920809e-38
-0.29551721 0.37275884 1.0432535 1.3644219e-38
-0.29269478 0.37456533 1.0483094 1.3920806e-38
-0.28976423 0.37628472 1.0531216 1.4104833e-38
-0.28332251 0.37342778 1.0451257 1.4012639e-38
-0.27873453 0.37296441 1.0438288 1.3920804e-38
-0.27860832 0.37854895 1.0594585 1.3920447e-38
-0.27480841 0.37923887 1.0613894 1.4197394e-38
-0.26917994 0.37738711 1.0562068 1.410556e-38
-0.26489329 0.37738711 1.0562068 1.4013364e-38
-0.26648051 0.38589314 1.0800129 1.3921886e-38
-0.23656254 0.36669526 1.0262831 1.4566534e-38
-0.24459039 0.40028274 1.1202857 1.4842402e-38
-0.24004367 0.40028274 1.1202857 1.4842043e-38
-0.23539247 0.40010515 1.1197886 1.4750568e-38
-0.23095025 0.40028274 1.1202857 1.49346e-38
-0.22687355 0.40111372 1.1226113 1.4934599e-38
-0.22152904 0.39969131 1.1186304 1.4935318e-38
-0.21584095 0.39757654 1.1127118 1.4934242e-38
-0.2117919 0.39845496 1.1151702 1.4934602e-38
-0.20671788 0.39740133 1.1122214 1.5026439e-38
-0.20043714 0.39392906 1.1025034 1.4750212e-38
-0.1953368 0.39267105 1.0989826 1.4474701e-38
-0.18969253 0.39023525 1.0921655 1.5119711e-38
-0.18472697 0.38911259 1.0890235 1.5396296e-38
-0.18064494 0.38984159 1.0910636 1.5579608e-38
-0.17583673 0.38900068 1.0887102 1.5579968e-38
-0.17104921 0.38816342 1.0863669 1.5671805e-38
-0.16014004 0.38316017 1.0723641 1.5857274e-38
-0.15585405 0.38332304 1.0728199 1.6041665e-38
-0.15102915 0.38213179 1.0694859 1.5857273e-38
-0.14164774 0.38025174 1.0642241 1.6132786e-38
-0.11592737 0.39565757 1.1073411 1.6041305e-38
-0.10729999 0.39699307 1.1110787 1.6041671e-38
-0.10148007 0.39193144 1.0969126 1.6409375e-38
-0.097879104 0.39536843 1.1065319 1.6226061e-38
-0.094006494 0.39798599 1.1138577 1.613422e-38
-0.088303648 0.39272806 1.0991421 1.6318612e-38
-0.084074661 0.39381436 1.1021824 1.6225702e-38
-0.079289764 0.39227244 1.097867 1.6133507e-38
-0.074423932 0.39012271 1.0918504 1.45669e-38
-0.069501489 0.38738519 1.0841888 1.2446767e-38
-0.065382168 0.38905665 1.0888668 7.9291801e-39
-0.060389739 0.38539833 1.0786281 7.7433413e-39
-0.05585295 0.38430327 1.0755634 7.7437028e-39
-0.051641814 0.38545322 1.0787818 7.6504282e-39
-0.046896026 0.38245595 1.0703932 9.2181084e-39
-0.042593963 0.38283482 1.0714536 8.2965123e-39
-0.03938818 0.39427355 1.1034676 6.2682168e-39
-0.034114178 0.38528854 1.0783209 7.0061406e-39
-0.030338416 0.39307046 1.1001004 7.2820072e-39
-0.025787447 0.39176115 1.096436 7.2805611e-39
-0.016875399 0.39147767 1.0956427 1.0136089e-38
-0.012319948 0.38805205 1.0860552 1.5856555e-38
-0.0079053603 0.38771832 1.0851213 1.6686673e-38
-0.0034983591 0.38738519 1.0841888 9.9563979e-39
0.00090094621 0.38699725 1.0831031 3.5978002e-39
0.0052891816 0.38644439 1.0815558 8.2950759e-39
0.0096442597 0.38506916 1.0777068 1.7975977e-38
0.014044151 0.38578305 1.0797049 1.7794119e-38
0.01831645 0.38348609 1.0732763 1.8070345e-38
0.022698112 0.3839215 1.0744948 1.7886665e-38
0.027009144 0.38321444 1.0725161 1.7978862e-38
0.030773452 0.3760232 1.0523896 1.7978864e-38
0.035669334 0.38272649 1.0711504 1.8070699e-38
0.039233945 0.37524077 1.0501999 1.8070342e-38
0.053650569 0.38699725 1.0831031 1.7978864e-38
0.059250019 0.39502203 1.1055623 1.8163974e-38
0.11534388 0.41952711 1.1741456 1.8807903e-38
0.12053914 0.42102891 1.1783488 1.8347646e-38
0.12481641 0.41933203 1.1735996 1.8808627e-38
0.1282672 0.41508529 1.1617141 1.8532402e-38
0.13020493 0.40641689 1.1374536 1.8715358e-38
0.13837636 0.41713351 1.1674465 1.8531685e-38
0.14437945 0.40733486 1.1400228 1.8807907e-38
0.18687683 0.39927834 1.1174747 1.8163614e-38
0.19014914 0.39664382 1.1101013 1.8071065e-38
0.19591852 0.39921942 1.1173097 1.8162543e-38
0.20164348 0.40159008 1.1239446 1.816254e-38
0.20599097 0.4011732 1.1227778 1.7886308e-38
0.20949149 0.3991605 1.1171448 1.8161461e-38
0.22905184 0.39381436 1.1021824 1.7885951e-38
0.23366114 0.39404383 1.1028246 1.7884873e-38
0.24583532 0.39204505 1.0972306 1.7517165e-38
0.24956508 0.39091197 1.0940593 1.7424613e-38
0.25265446 0.38883296 1.0882407 1.7793035e-38
0.25593069 0.38710803 1.0834131 1.7793035e-38
0.2599929 0.38661009 1.0820196 1.7609718e-38
0.26423326 0.3863892 1.0814013 1.7609e-38
0.40320241 0.39792746 1.1136938 1.6317903e-38
0.41236365 0.39804456 1.1140215 1.6409736e-38
0.41759646 0.39444602 1.1039503 1.6225706e-38
0.42091075 0.39335623 1.1009002 1.6134231e-38
0.42811796 0.39588919 1.1079893 1.6317902e-38
0.56188691 0.49863794 1.3955559 1.6225343e-38
0.56944019 0.5002979 1.4002017 1.6317898e-38
0.52833384 0.4550994 1.273703 1.5949482e-38
0.50397825 0.40260616 1.1267884 1.5855842e-38
0.51336485 0.40641689 1.1374536 1.585656e-38
0.51922935 0.4073962 1.1401944 1.5581052e-38
0.52968019 0.4119249 1.152869 1.5673251e-38
0.5388723 0.41540399 1.1626061 1.5765091e-38
0.55189633 0.42175099 1.1803696 1.5488501e-38
0.56114876 0.42513135 1.1898304 1.5764727e-38
0.57200068 0.42965546 1.2024922 1.576437e-38
0.57761496 0.4302021 1.204022 1.5211557e-38
0.58093095 0.42904216 1.2007757 1.4935688e-38
0.5852474 0.42863426 1.1996341 1.5027522e-38
0.58871686 0.42761791 1.1967896 1.4935685e-38
0.59142381 0.42606881 1.1924541 1.4843489e-38
0.59318024 0.42386568 1.1862881 1.5027519e-38
0.59417766 0.42116001 1.1787157 1.4936402e-38
0.60055101 0.42227769 1.1818438 1.4567627e-38
0.6049698 0.42201418 1.1811062 1.4567268e-38
0.60938305 0.42175099 1.1803696 1.4566551e-38
-0.62690353 0.36531413 1.0109348 1.0877991e-38
-0.62471926 0.36643952 1.0140492 1.0970546e-38
-0.62260514 0.36762127 1.0173193 1.1154934e-38
-0.62148267 0.36940825 1.0222645 1.1338607e-38
-0.62001276 0.37101132 1.0267006 1.1430804e-38
-0.61802495 0.37232411 1.0303335 1.1523359e-38
-0.61585486 0.37354416 1.0337099 1.1524078e-38
-0.61350232 0.37466961 1.0368242 1.0786154e-38
-0.61138761 0.37595677 1.0403862 7.9291689e-39
-0.60993111 0.37766945 1.0451257 4.9789129e-39
-0.60913706 0.37981915 1.0510746 5.3451787e-39
-0.61003745 0.38306323 1.0600519 8.5734635e-39
-0.6094901 0.38543779 1.0666231 1.1431881e-38
-0.60772979 0.38707379 1.0711504 1.1984695e-38
-0.60509473 0.38817218 1.0741899 1.226092e-38
-0.60235894 0.38922143 1.0770936 1.235276e-38
-0.59995067 0.3904992 1.0806296 1.2352763e-38
-0.59778333 0.3919538 1.0846548 1.2353482e-38
-0.59534293 0.3932496 1.0882407 1.2445318e-38
-0.59288639 0.39455402 1.0918504 1.2445676e-38
-0.59101212 0.39626846 1.0965948 1.2538229e-38
-0.58826566 0.39741975 1.0997808 1.253823e-38
-0.58721423 0.39974248 1.1062084 1.2630066e-38
-0.58451819 0.40097281 1.1096132 1.2907013e-38
-0.58180553 0.40221074 1.1130389 1.2999208e-38
-0.57601798 0.40132573 1.1105899 1.3182879e-38
