# .PCD v0.7 - Point Cloud Data file format
VERSION 0.7
FIELDS x y z rgb
SIZE 4 4 4 4
TYPE F F F F
COUNT 1 1 1 1
WIDTH 1010
HEIGHT 1
VIEWPOINT 0 0 0 1 0 0 0
POINTS 1010
DATA ascii
-0.33782363 -0.46443829 2.7936866 1.5569909e-38
-0.3328726 -0.47352439 2.8483412 1.5569546e-38
-0.33102664 -0.48784024 2.9344537 1.5108216e-38
-0.32261837 -0.4931927 2.96665 1.5384434e-38
-1.234663 -0.47082099 2.9029489 7.8373502e-39
-1.2338078 -0.47964889 2.9573791 7.8377075e-39
-1.2343415 -0.48457029 2.9877234 8.2054111e-39
-1.0570438 -0.48668298 3.0007493 8.1142958e-39
-1.0419742 -0.48533642 2.9924469 7.746235e-39
-1.0273927 -0.48418814 2.9853671 7.8384334e-39
-1.0057584 -0.47964889 2.9573791 8.022103e-39
-0.98835075 -0.47704008 2.941294 8.2061355e-39
-0.98175317 -0.47964889 2.9573791 8.2983298e-39
-0.98631763 -0.48784313 3.0079026 8.2986899e-39
-0.58392918 -0.48823106 3.0102944 2.341769e-38
-0.5667541 -0.48399729 2.9841902 2.341769e-38
-0.55008936 -0.48002389 2.9596915 2.3417689e-38
-0.53765702 -0.47964889 2.9573791 2.3325496e-38
-0.52137744 -0.47574627 2.9333169 2.2586136e-38
-0.50536072 -0.47190666 2.9096429 2.0735748e-38
-0.48941386 -0.46795014 2.8852479 1.7969163e-38
-0.47516879 -0.46546671 2.8699358 1.5755747e-38
-0.46211967 -0.46405938 2.8612587 1.4925264e-38
-0.44864208 -0.46213818 2.8494132 1.5201485e-38
-0.43576559 -0.46075091 2.8408597 1.566246e-38
-0.42186144 -0.45817208 2.8249593 1.5109285e-38
-0.40780941 -0.45528406 2.8071527 1.5386231e-38
-0.39436936 -0.45293292 2.7926562 1.5201125e-38
-0.37981299 -0.44912258 2.7691627 1.547807e-38
-0.36763299 -0.44797561 2.7620907 1.5110009e-38
-0.3544831 -0.44553742 2.7470577 1.5662101e-38
-0.34308511 -0.44521433 2.7450655 1.5754298e-38
-0.33122361 -0.44424787 2.7391067 1.5385512e-38
-0.32385629 -0.44945136 2.7711899 1.510857e-38
-0.31387311 -0.45126835 2.7823927 1.5570637e-38
-0.30081189 -0.4486303 2.7661273 1.4925973e-38
-0.29247063 -0.45310006 2.7936866 1.418841e-38
-0.0096672112 -0.48591259 2.9959996 1.6030881e-38
-1.3273897 -0.45851186 2.8996134 7.9281053e-39
-1.3216959 -0.4606289 2.9130015 8.2050495e-39
-1.3135198 -0.47040254 2.9748096 7.5622025e-39
-1.2670931 -0.45798564 2.8962858 7.3778126e-39
-1.1983629 -0.44554317 2.8175998 7.9291871e-39
-1.2154248 -0.45624027 2.8852479 7.7455147e-39
-1.1820914 -0.44804433 2.8334172 7.6540365e-39
-1.2109258 -0.46348217 2.9310455 7.7455119e-39
-1.2098026 -0.46764627 2.9573791 7.8373502e-39
-1.1784658 -0.46009779 2.9096429 7.8366341e-39
-1.2060554 -0.47563547 3.0079026 7.8369943e-39
-1.0792621 -0.47356585 2.9948144 7.7458748e-39
-1.0245531 -0.45468077 2.8753858 7.7458734e-39
-1.0082879 -0.45261794 2.8623405 7.746235e-39
-0.99554187 -0.45210516 2.8590977 7.8380719e-39
-0.98208374 -0.45125312 2.8537092 7.7462364e-39
-0.96468395 -0.44854796 2.836602 7.8387907e-39
-0.95032305 -0.44720751 2.828125 7.745879e-39
-0.94024998 -0.44787672 2.8323572 7.9302689e-39
-0.93646228 -0.45159355 2.8558621 8.1146588e-39
-0.90573877 -0.44225138 2.7967827 8.1146574e-39
-0.89011329 -0.44013768 2.7834158 8.1150175e-39
-0.90682155 -0.45416331 2.8721132 8.2072131e-39
-0.60571462 -0.47394082 2.9971855 2.341769e-38
-0.58612531 -0.46801192 2.9596915 2.341769e-38
-0.56745821 -0.46258673 2.9253829 2.341769e-38
-0.55174798 -0.45939159 2.9051769 2.341769e-38
-0.53584486 -0.4558928 2.8830507 2.341769e-38
-0.52235365 -0.45433566 2.8732033 2.341769e-38
-0.5079937 -0.45193449 2.8580184 2.3417689e-38
-0.49359933 -0.44938982 2.8419259 2.3325496e-38
-0.47954515 -0.4470405 2.827069 2.3231145e-38
-0.46754766 -0.44654027 2.8239055 2.0737911e-38
-0.45557699 -0.44604117 2.8207493 1.7787295e-38
-0.4439635 -0.44587505 2.8196986 1.6308201e-38
-0.43316498 -0.44654027 2.8239055 1.6306749e-38
-0.4195134 -0.4442206 2.8092358 1.6676243e-38
-0.40525496 -0.44111073 2.7895691 1.547771e-38
-0.39105171 -0.43788385 2.7691627 1.5386592e-38
-0.37623504 -0.43375888 2.7430763 1.5293679e-38
-0.36404699 -0.43250522 2.7351484 1.6031967e-38
-0.35028878 -0.42924866 2.7145538 1.4649389e-38
-0.33890712 -0.42878741 2.711637 1.529224e-38
-0.325454 -0.42558637 2.6913939 1.6028724e-38
-0.31735128 -0.42940262 2.7155275 1.4924536e-38
-0.30677038 -0.43001956 2.7194293 1.4740864e-38
-0.29509753 -0.42909479 2.7135808 1.5386229e-38
-0.28603229 -0.432037 2.7321873 1.5017093e-38
-0.27927741 -0.43884695 2.7752533 1.5107846e-38
-0.27159813 -0.44471562 2.8123665 1.4924531e-38
-0.27053514 -0.46240807 2.924253 1.566102e-38
-0.26490855 -0.47356585 2.9948144 1.510857e-38
-0.058582768 -0.47601372 3.0102944 1.4557547e-38
-0.046383854 -0.47620305 3.011492 1.5385873e-38
-0.033120845 -0.46169475 2.9197419 1.6121635e-38
-0.021075925 -0.45746064 2.8929656 1.6121635e-38
-0.0093994001 -0.4606289 2.9130015 1.649114e-38
-1.3215691 -0.43703553 2.836602 7.8366327e-39
-1.3219438 -0.44100106 2.8623405 8.021024e-39
-1.2616725 -0.42462608 2.7560577 8.021024e-39
-1.2741424 -0.4326587 2.8081939 7.929906e-39
-1.2755194 -0.43703553 2.836602 7.7458734e-39
-1.2513481 -0.4326587 2.8081939 7.3767322e-39
-1.2506202 -0.43638152 2.8323572 7.6536792e-39
-1.2092667 -0.42586631 2.7641077 7.7455147e-39
-1.1885022 -0.42247295 2.7420828 7.6533205e-39
-1.1252087 -0.40375486 2.6205921 7.7451574e-39
-1.1500005 -0.41658852 2.7038896 7.5607647e-39
-1.1725274 -0.42884111 2.7834158 7.4689292e-39
-1.1456467 -0.4230859 2.7460613 7.7458734e-39
-1.1758727 -0.43851423 2.8461995 7.7455119e-39
-1.0753801 -0.4050166 2.6287816 7.9291871e-39
-1.1142325 -0.42385459 2.7510505 7.745156e-39
-1.1297511 -0.43410787 2.8175998 7.7447944e-39
-1.1007013 -0.42727026 2.7732201 7.7447944e-39
-1.0322115 -0.43638152 2.8323572 8.1132196e-39
-1.0056671 -0.42994758 2.7905974 7.8377117e-39
-0.99912894 -0.43201771 2.8040335 7.7455161e-39
-0.99215829 -0.43394637 2.8165517 7.8387865e-39
-0.98109221 -0.43410787 2.8175998 7.8384264e-39
-0.97327912 -0.43572947 2.828125 7.7458748e-39
-0.95043981 -0.43058243 2.7947178 7.9299074e-39
-0.9397912 -0.43090057 2.7967827 7.5618437e-39
-0.93153751 -0.43233797 2.8061123 7.746235e-39
-0.95409745 -0.44828895 2.9096429 7.8377145e-39
-0.90741485 -0.43169793 2.8019581 7.8384306e-39
-0.89372766 -0.43058243 2.7947178 7.7458748e-39
-0.91867083 -0.44828895 2.9096429 7.8377117e-39
-0.82639396 -0.41943467 2.7223628 7.8384278e-39
-0.82303989 -0.42339304 2.7480547 8.1146546e-39
-0.82203168 -0.42868352 2.7823927 7.9302647e-39
-0.61787879 -0.46177664 2.9971855 1.9635513e-38
-0.59511286 -0.45369422 2.944726 2.3140746e-38
-0.5762139 -0.44828895 2.9096429 2.3417689e-38
-0.55818391 -0.44334772 2.8775716 2.341769e-38
-0.54176909 -0.43950558 2.852634 2.341769e-38
-0.5282014 -0.43785578 2.8419259 2.341769e-38
-0.51473522 -0.43621832 2.8312979 2.341769e-38
-0.50099599 -0.43426949 2.8186488 2.341769e-38
-0.48737901 -0.43233797 2.8061123 2.341769e-38
-0.47405756 -0.43058243 2.7947178 2.3417689e-38
-0.46220326 -0.43010613 2.7916265 2.3325853e-38
-0.45020935 -0.42947268 2.7875149 2.3324418e-38
-0.43873462 -0.42931461 2.786489 2.0644279e-38
-0.42805576 -0.42994758 2.7905974 1.6954652e-38
-0.41550484 -0.42868352 2.7823927 1.5662466e-38
-0.40317523 -0.42758352 2.7752533 1.5570264e-38
-0.38863516 -0.42400867 2.7520504 1.5295115e-38
-0.37285769 -0.41883224 2.7184527 1.5478785e-38
-0.35886112 -0.41540164 2.6961861 1.5570266e-38
-0.34448355 -0.41130036 2.6695666 1.446464e-38
-0.33376676 -0.41144544 2.6705081 1.529224e-38
-0.32066622 -0.40856317 2.6518006 1.5475908e-38
-0.31044751 -0.40927994 2.6564529 1.5200766e-38
-0.29840976 -0.40756389 2.6453147 1.5569184e-38
-0.28757322 -0.40742153 2.6443908 1.5477346e-38
-0.27713126 -0.40784889 2.6471646 1.5570266e-38
-0.2671349 -0.40899292 2.6545901 1.6400018e-38
-0.25690165 -0.40985519 2.6601865 1.5017086e-38
-0.25488192 -0.42447156 2.755055 1.4924175e-38
-0.24512768 -0.42695749 2.7711899 1.4464281e-38
-0.23682807 -0.43233797 2.8061123 1.510929e-38
-0.11919563 -0.46195954 2.9983726 1.5938329e-38
-0.10664652 -0.4603188 2.9877234 1.6121993e-38
-0.092620119 -0.45106259 2.9276452 1.5293312e-38
-0.080863275 -0.45176136 2.9321809 1.4463918e-38
-0.068485506 -0.44863379 2.911881 1.4741949e-38
-0.055872455 -0.44233894 2.8710241 1.5846853e-38
-0.044153355 -0.44166899 2.8666759 1.6215277e-38
-0.031914663 -0.43346259 2.8134117 1.584613e-38
-0.020367688 -0.43074143 2.7957499 1.5845058e-38
-0.009051146 -0.43217778 2.8050725 1.4925258e-38
-1.3350897 -0.42251533 2.8165517 7.8369887e-39
-1.3241513 -0.42267257 2.8175998 7.7451532e-39
-1.3122276 -0.42251533 2.8165517 7.6529603e-39
-1.3012806 -0.42267257 2.8175998 7.8373502e-39
-1.2391186 -0.40604976 2.7067897 8.0213785e-39
-1.2464035 -0.41209042 2.7470577 7.7451532e-39
-1.2370498 -0.41268939 2.7510505 7.8373488e-39
-1.2187986 -0.41030389 2.7351484 7.8373488e-39
-1.2055204 -0.40956408 2.7302167 7.9295444e-39
-1.1613538 -0.3982192 2.6545901 7.9299046e-39
-1.143364 -0.39572167 2.6379411 7.8377089e-39
-1.122489 -0.39216891 2.6142578 7.6533191e-39
-1.1310155 -0.39891857 2.6592522 7.5611235e-39
-1.1325549 -0.40331009 2.6885266 7.6529589e-39
-1.1180701 -0.40202519 2.6799614 7.7451532e-39
-1.0741144 -0.39001414 2.5998938 7.6529575e-39
-1.0573897 -0.38775048 2.5848041 7.7451532e-39
-1.0548222 -0.39068496 2.6043656 7.5614836e-39
-1.0658853 -0.3987785 2.6583183 7.7451546e-39
-1.0670862 -0.40331009 2.6885266 7.6533177e-39
-1.0322115 -0.42488635 2.8323572 7.9291871e-39
-1.0082686 -0.41970479 2.7978163 7.9295444e-39
-1.0013542 -0.42157429 2.8102787 8.0217387e-39
-1.0018488 -0.42664206 2.8440611 7.8377075e-39
-0.9873389 -0.42536375 2.8355396 7.9299046e-39
-0.97949928 -0.42696285 2.8461995 7.8380691e-39
-0.97602028 -0.43052357 2.8699358 7.9295472e-39
-0.96182036 -0.4293842 2.8623405 7.8377117e-39
-0.9452005 -0.42712343 2.84727 7.8380719e-39
-0.96975058 -0.4436411 2.9573791 7.8380719e-39
-0.9287253 -0.43019742 2.8677616 7.6547596e-39
-0.91952455 -0.43134111 2.8753858 7.7465937e-39
-0.94743621 -0.45014712 3.0007493 8.2064915e-39
-0.7897349 -0.38512078 2.5672739 8.1146546e-39
-0.8041293 -0.39738318 2.6490171 8.2064901e-39
-0.79925096 -0.4003247 2.6686256 8.2061341e-39
-0.79429984 -0.40331009 2.6885266 8.0224631e-39
-0.79899371 -0.41134414 2.7420828 8.206853e-39
-0.80775899 -0.42173085 2.8113222 8.4827196e-39
-0.80562294 -0.42664206 2.8440611 8.6671109e-39
-0.63154304 -0.450683 3.0043218 9.0366095e-39
-0.60824704 -0.44260374 2.950464 9.6801852e-39
-0.58599585 -0.43497556 2.8996134 1.5120086e-38
-0.56835049 -0.43052357 2.8699358 2.129826e-38
-0.55189097 -0.4268024 2.84513 2.3417331e-38
-0.53671342 -0.42393473 2.8260138 2.341769e-38
-0.52231944 -0.42157429 2.8102787 2.341769e-38
-0.50827247 -0.41939482 2.7957499 2.341769e-38
-0.49564466 -0.4183135 2.7885418 2.341769e-38
-0.48219603 -0.41647273 2.7762709 2.341769e-38
-0.46818152 -0.41404346 2.7600768 2.341769e-38
-0.45565078 -0.41283938 2.7520504 2.341769e-38
-0.44319269 -0.41164231 2.7440705 2.341769e-38
-0.43143031 -0.41104639 2.740098 2.3325496e-38
-0.42061403 -0.41134414 2.7420828 2.2954918e-38
-0.40859726 -0.41045219 2.7361369 1.9997469e-38
-0.39634666 -0.40926889 2.7282488 1.6310355e-38
-0.38279104 -0.40663129 2.7106662 1.5109642e-38
-0.36836067 -0.40288088 2.6856654 1.5017088e-38
-0.35481763 -0.39990181 2.6658065 1.446428e-38
-0.34040257 -0.39572167 2.6379411 1.4281328e-38
-0.32866576 -0.39448461 2.6296947 1.4647947e-38
-0.31656364 -0.39271134 2.6178737 1.5753938e-38
-0.30593893 -0.39271134 2.6178737 1.6584421e-38
-0.29419523 -0.39122328 2.607954 1.5570264e-38
-0.2830258 -0.39041635 2.6025751 1.5662104e-38
-0.27218249 -0.39001414 2.5998938 1.6214922e-38
-0.26091397 -0.38894561 2.5927708 1.5479148e-38
-0.24996312 -0.38828075 2.5883386 1.4740863e-38
-0.24219069 -0.39271134 2.6178737 1.520112e-38
-0.23068854 -0.39122328 2.607954 1.538587e-38
-0.22459127 -0.39919901 2.6611216 1.5476986e-38
-0.21545714 -0.40231001 2.68186 1.5568461e-38
-0.2134179 -0.41970479 2.7978163 1.5476621e-38
-0.20087516 -0.41723776 2.7813706 1.5478425e-38
-0.18841019 -0.41464812 2.7641077 1.5017098e-38
-0.18587855 -0.43497556 2.8996134 1.5937253e-38
-0.17675048 -0.44157121 2.9435811 1.5384797e-38
-0.16486798 -0.44174296 2.944726 1.5845774e-38
-0.1535738 -0.4436411 2.9573791 1.4924894e-38
-0.13650556 -0.42776692 2.8515596 1.5754296e-38
-0.12757523 -0.43681583 2.911881 1.557026e-38
-0.11535797 -0.43530899 2.9018362 1.5385512e-38
-0.10271467 -0.43166903 2.8775716 1.5753934e-38
-0.089605547 -0.42488635 2.8323572 1.5477707e-38
-0.078227416 -0.4255231 2.836602 1.5754298e-38
-0.066268079 -0.42267257 2.8175998 1.6031247e-38
-0.054528374 -0.42032611 2.8019581 1.6123434e-38
-0.043300785 -0.42173085 2.8113222 1.6120559e-38
-0.031655863 -0.4186219 2.7905974 1.6490783e-38
-0.020218365 -0.41632009 2.7752533 1.6122002e-38
-0.0089680767 -0.41693142 2.7793286 1.5293322e-38
-1.3321487 -0.40669656 2.786489 7.6522373e-39
-1.3242513 -0.40774706 2.7936866 7.652596e-39
-1.3192415 -0.40971246 2.8071527 7.5611206e-39
-1.3073639 -0.40956062 2.8061123 7.5607619e-39
-1.2807844 -0.40475988 2.7732201 7.5607605e-39
-1.2351441 -0.39379704 2.698108 7.6525974e-39
-1.2405518 -0.39905906 2.7341607 7.7444343e-39
-1.226355 -0.39805278 2.7272661 7.7451532e-39
-1.211794 -0.39690894 2.7194293 7.9291829e-39
-1.1804054 -0.39018169 2.6733372 7.8366299e-39
-1.152063 -0.38434592 2.6333532 7.745156e-39
-1.133882 -0.38182256 2.6160645 7.7455119e-39
-1.1109802 -0.3776468 2.5874541 7.6533163e-39
-1.1141872 -0.38235104 2.6196854 7.7451532e-39
-1.1159114 -0.38663208 2.6490171 7.7447944e-39
-1.1074853 -0.38744548 2.6545901 7.9291857e-39
-1.0864263 -0.38381192 2.6296947 7.7451546e-39
-1.0573897 -0.37726 2.5848041 7.7455133e-39
-1.0519272 -0.37907186 2.597218 7.5614794e-39
-1.046412 -0.38090125 2.6097522 7.6536764e-39
-1.0591874 -0.389494 2.6686256 8.0217387e-39
-1.0962727 -0.40729618 2.7905974 8.1135784e-39
-1.0893639 -0.40895429 2.8019581 8.1135798e-39
-1.0941904 -0.41509938 2.8440611 8.0217415e-39
-1.1037947 -0.4232074 2.8996134 7.8380705e-39
-1.047495 -0.4059495 2.7813706 7.8377117e-39
-1.0712323 -0.4196713 2.8753858 7.929906e-39
-1.0480195 -0.41509938 2.8440611 7.9288284e-39
-1.0302843 -0.41261932 2.827069 7.8377103e-39
-1.0116332 -0.40971246 2.8071527 8.1139385e-39
-1.0039629 -0.41123727 2.8175998 8.2061313e-39
-1.0010966 -0.41478774 2.8419259 8.2976095e-39
-0.98109221 -0.41123727 2.8175998 8.0221016e-39
-0.97619641 -0.41401067 2.836602 7.8377103e-39
-0.8669163 -0.37205201 2.5491214 7.9302647e-39
-0.88333851 -0.38367864 2.6287816 7.9295486e-39
-0.939547 -0.41308206 2.8302395 8.1139385e-39
-0.82752049 -0.36833149 2.5236301 8.1142972e-39
-0.82386923 -0.37130192 2.543982 8.1146574e-39
-0.81000608 -0.36968702 2.5329177 8.2075705e-39
-0.79467469 -0.36735189 2.5169184 8.023182e-39
-0.78602761 -0.36808613 2.5219491 7.6540407e-39
-0.77942711 -0.36981076 2.5337653 8.0217415e-39
-0.77537167 -0.37280518 2.5542817 8.2064915e-39
-0.77706474 -0.37868217 2.594548 8.0224617e-39
-0.76653469 -0.37868217 2.594548 7.7465965e-39
-0.79381847 -0.39762306 2.7243221 7.838432e-39
-0.8122834 -0.41261932 2.827069 8.0224631e-39
-0.79223061 -0.40819892 2.7967827 8.2072131e-39
-0.82993388 -0.43384159 2.9724739 8.0228233e-39
-0.62386847 -0.43316132 2.967813 8.4845189e-39
-0.60052401 -0.42516142 2.9130015 8.6685472e-39
-0.58043826 -0.41919369 2.8721132 9.1277233e-39
-0.563438 -0.41525537 2.84513 1.1064906e-38
-0.54797828 -0.41231138 2.8249593 1.9079462e-38
-0.53293371 -0.40956062 2.8061123 2.2496808e-38
-0.5178979 -0.40669656 2.786489 2.3325854e-38
-0.50251985 -0.4034299 2.7641077 2.341769e-38
-0.48650587 -0.39949188 2.7371261 2.341769e-38
-0.47198442 -0.39662403 2.7174768 2.341769e-38
-0.45832333 -0.3943592 2.7019596 2.341769e-38
-0.44402951 -0.39142561 2.68186 2.341769e-38
-0.430098 -0.38867199 2.6629937 2.341769e-38
-0.41708955 -0.38663208 2.6490171 2.341769e-38
-0.40562883 -0.38595688 2.6443908 2.3417689e-38
-0.39420804 -0.38528401 2.6397805 2.3325496e-38
-0.38429838 -0.38609174 2.6453147 2.2677968e-38
-0.37226161 -0.38474739 2.6361041 1.9905267e-38
-0.3606838 -0.38381192 2.6296947 1.6769895e-38
-0.35062006 -0.38447964 2.6342695 1.5847223e-38
-0.33734646 -0.3815589 2.6142578 1.5295485e-38
-0.32594857 -0.38063884 2.607954 1.5293678e-38
-0.313743 -0.37868217 2.594548 1.6214195e-38
-0.30155945 -0.37661707 2.580399 1.5846135e-38
-0.29019666 -0.37546533 2.5725079 1.5109286e-38
-0.27928159 -0.37482855 2.5681448 1.5017815e-38
-0.26776874 -0.37330896 2.5577333 1.6214553e-38
-0.25557491 -0.37067914 2.5397151 1.5108922e-38
-0.24452914 -0.36956337 2.5320704 1.464867e-38
-0.23559216 -0.37167659 2.5465493 1.5108926e-38
-0.22412612 -0.36981076 2.5337653 1.5293313e-38
-0.21593855 -0.37343511 2.5585978 1.5385868e-38
-0.20321935 -0.36919296 2.5295324 1.547663e-38
-0.19451292 -0.37217733 2.5499802 1.5384796e-38
-0.18598033 -0.37584847 2.5751328 1.5477347e-38
-0.17782755 -0.38077 2.6088529 1.5845774e-38
-0.16916308 -0.38514972 2.6388605 1.5660669e-38
-0.16652097 -0.40475988 2.7732201 1.4925615e-38
-0.15572211 -0.4059495 2.7813706 1.474194e-38
-0.1476893 -0.41509938 2.8440611 1.6122359e-38
-0.13314557 -0.4059495 2.7813706 1.5845416e-38
-0.12381321 -0.4124653 2.8260138 1.5386232e-38
-0.11331662 -0.41603708 2.850486 1.584685e-38
-0.10129021 -0.41416585 2.8376653 1.6305669e-38
-0.089171864 -0.41139036 2.8186488 1.5108209e-38
-0.077386573 -0.40956062 2.8061123 1.5848653e-38
-0.066292748 -0.41139036 2.8186488 1.6214562e-38
-0.054588985 -0.40940887 2.8050725 1.5753578e-38
-0.04304504 -0.40789756 2.7947178 1.6122714e-38
-0.031632543 -0.40699613 2.7885418 1.6121996e-38
-0.020005694 -0.40079597 2.7460613 1.547771e-38
-0.0089549273 -0.40505666 2.7752533 1.5938331e-38
-1.2956357 -0.3781302 2.6648684 7.7447916e-39
-1.2962267 -0.38148716 2.6885266 7.6529547e-39
-1.3052462 -0.38740277 2.7302167 7.6525946e-39
-1.3021485 -0.38979241 2.7470577 7.9291815e-39
-1.2766396 -0.38545671 2.716502 7.8369859e-39
-1.2597386 -0.38366708 2.7038896 7.652596e-39
-1.2007353 -0.36891067 2.5998938 7.7444343e-39
-1.2038258 -0.37313923 2.6296947 7.9284654e-39
-1.2031832 -0.37627596 2.6518006 7.8369901e-39
-1.196612 -0.37759855 2.6611216 7.8373516e-39
-1.1758921 -0.37443984 2.6388605 8.0210226e-39
-1.1467952 -0.36853099 2.597218 8.0203023e-39
-1.1254438 -0.36502475 2.5725079 8.0206625e-39
-1.1176616 -0.36589506 2.5786412 8.1128553e-39
-1.085385 -0.3586871 2.5278432 8.0206597e-39
-1.0704792 -0.35713693 2.5169184 7.928827e-39
-1.0836815 -0.36502475 2.5725079 7.8369901e-39
-1.0798454 -0.36727107 2.5883386 7.9288298e-39
-1.0624393 -0.36490077 2.5716341 7.7455175e-39
-1.0167743 -0.35268152 2.4855189 7.8380705e-39
-1.0153537 -0.35571784 2.5069175 8.0221002e-39
-1.0269423 -0.36341944 2.5611944 7.6540379e-39
-1.0336823 -0.36954519 2.6043656 7.8377117e-39
-1.0561748 -0.38148716 2.6885266 7.9299074e-39
-1.0950377 -0.39965323 2.8165517 7.9291913e-39
-1.101223 -0.40615043 2.8623405 8.0210226e-39
-1.1118858 -0.41445521 2.9208684 8.2054125e-39
-1.0467259 -0.39437145 2.7793286 7.9299046e-39
-1.0579726 -0.40295118 2.8397939 8.113577e-39
-1.0480195 -0.40355667 2.8440611 7.7447944e-39
-1.0177431 -0.39626259 2.7926562 7.6533177e-39
-0.98568451 -0.38810256 2.7351484 7.5618409e-39
-0.9728266 -0.38740277 2.7302167 7.9295472e-39
-0.99252754 -0.39980197 2.8175998 8.0213827e-39
-0.92239147 -0.37588099 2.6490171 7.9295458e-39
-0.87168556 -0.35940713 2.5329177 8.1139371e-39
-0.85511178 -0.3567811 2.5144107 7.8380691e-39
-0.85198087 -0.35976821 2.5354624 7.6536806e-39
-0.8416906 -0.35976821 2.5354624 8.0213813e-39
-0.81905693 -0.35442689 2.4978194 8.0217387e-39
-0.81429255 -0.3567811 2.5144107 8.113577e-39
-0.80328739 -0.35642597 2.5119081 8.1142958e-39
-0.78916526 -0.3546609 2.4994688 7.7465965e-39
-0.78237897 -0.35618961 2.5102422 7.6547596e-39
-0.77682728 -0.35832816 2.5253139 7.7458748e-39
-0.77198577 -0.36085585 2.5431275 8.0224603e-39
-0.77866584 -0.36891067 2.5998938 7.9306234e-39
-0.77102661 -0.3703095 2.6097522 7.8387879e-39
-0.79812646 -0.38866422 2.7391067 7.6543981e-39
-0.81716567 -0.40355667 2.8440611 7.6543995e-39
-0.78440684 -0.39292899 2.7691627 8.1153762e-39
-0.79617387 -0.40462068 2.8515596 8.1150175e-39
-0.82565004 -0.42578989 3.0007493 7.930985e-39
-0.65697211 -0.42697451 3.0090981 8.4830797e-39
-0.63716227 -0.4219434 2.9736414 8.852221e-39
-0.61542481 -0.41541681 2.9276452 8.7603869e-39
-0.59639353 -0.41049594 2.8929656 8.9451341e-39
-0.57671887 -0.4049257 2.8537092 9.0366109e-39
-0.56027973 -0.40144539 2.8291819 8.8525797e-39
-0.54472619 -0.3984673 2.8081939 1.0048242e-38
-0.52940178 -0.39553308 2.7875149 1.3095009e-38
-0.51373804 -0.39221171 2.7641077 2.0282321e-38
-0.49653748 -0.38754252 2.7312016 2.3416973e-38
-0.47871763 -0.38216573 2.6933086 2.3417689e-38
-0.46106192 -0.37667176 2.6545901 2.341769e-38
-0.44575563 -0.37288019 2.6278691 2.341769e-38
-0.43358538 -0.37159041 2.6187792 2.341769e-38
-0.42164436 -0.3704372 2.610652 2.341769e-38
-0.40907413 -0.36865747 2.5981095 2.341769e-38
-0.39703089 -0.36727107 2.5883386 2.341769e-38
-0.38599819 -0.36676949 2.5848041 2.341769e-38
-0.37653613 -0.36777401 2.5918832 2.3417689e-38
-0.36539143 -0.36714554 2.5874541 2.3325496e-38
-0.3548902 -0.36714554 2.5874541 2.2954554e-38
-0.34509659 -0.36789995 2.5927708 2.009074e-38
-0.33411607 -0.36739668 2.5892239 1.658659e-38
-0.32405093 -0.36789995 2.5927708 1.575394e-38
-0.31181949 -0.36589506 2.5786412 1.6213828e-38
-0.29992387 -0.3641586 2.5664036 1.5384794e-38
-0.28804341 -0.36231631 2.5534201 1.4832698e-38
-0.27600473 -0.36013001 2.5380123 1.4741954e-38
-0.26455122 -0.35856739 2.5269995 1.4650113e-38
-0.25210747 -0.35548243 2.5052583 1.5386235e-38
-0.24098291 -0.35407642 2.4953496 1.5938692e-38
-0.23100774 -0.35430998 2.4969957 1.5661745e-38
-0.21729034 -0.34856194 2.4564862 1.501601e-38
-0.20671697 -0.34754702 2.4493339 1.5385513e-38
-0.1945731 -0.34365574 2.42191 1.4925615e-38
-0.18647364 -0.3468737 2.4445887 1.4925975e-38
-0.17558837 -0.34498003 2.4312429 1.566174e-38
-0.16837049 -0.35049522 2.4701111 1.538408e-38
-0.16081142 -0.35595357 2.5085788 1.5753215e-38
-0.15048072 -0.35560009 2.5060875 1.5847204e-38
-0.14152774 -0.3586871 2.5278432 1.6031956e-38
-0.13140003 -0.35904676 2.5303779 1.6030158e-38
-0.12219226 -0.36219415 2.5525594 1.6030161e-38
-0.11202148 -0.36280575 2.5568695 1.6675532e-38
-0.11263808 -0.40204635 2.8334172 1.6030175e-38
-0.098198503 -0.39035895 2.7510505 1.6213117e-38
-0.085055269 -0.38148716 2.6885266 1.6121642e-38
-0.074996039 -0.38587207 2.7194293 1.4925617e-38
-0.064986251 -0.39206856 2.7630987 1.5845052e-38
-0.05267632 -0.38407859 2.7067897 1.6397501e-38
-0.042157993 -0.38838318 2.7371261 1.6214189e-38
-0.031139359 -0.38950974 2.7450655 1.5936163e-38
-0.0197055 -0.38380417 2.7048557 1.5384786e-38
-0.0088032587 -0.38712355 2.7282488 1.6491503e-38
-1.2834834 -0.32337812 2.3461082 7.8359083e-39
-1.3201908 -0.33511278 2.4312429 7.743714e-39
-1.2803099 -0.32743683 2.3755541 7.5604004e-39
-1.3143853 -0.33870211 2.4572835 7.5600416e-39
-1.328428 -0.37349364 2.7096961 7.7440728e-39
-1.2897341 -0.36564162 2.6527297 7.7440742e-39
-1.2962267 -0.37057573 2.6885266 7.7444329e-39
-1.2912765 -0.3722944 2.7009957 7.6529561e-39
-1.2881267 -0.37456611 2.7174768 7.6533149e-39
-1.2743533 -0.37376118 2.711637 7.8373474e-39
-1.2738417 -0.37686574 2.7341607 7.744793e-39
-1.2028005 -0.35897529 2.6043656 7.8366299e-39
-1.1934623 -0.35934615 2.6070561 8.2050523e-39
-1.1910845 -0.36183813 2.6251354 8.0210212e-39
-1.1804304 -0.36183813 2.6251354 7.7444343e-39
-1.160521 -0.35897529 2.6043656 7.7447944e-39
-1.123289 -0.35065228 2.543982 7.7444357e-39
-1.1103524 -0.34982944 2.5380123 7.7447958e-39
-1.0967429 -0.34877715 2.5303779 7.7451546e-39
-1.0763999 -0.34554344 2.5069175 7.9291857e-39
-1.0320517 -0.33446833 2.4265676 7.6525988e-39
-1.024173 -0.33511278 2.4312429 7.5604018e-39
-1.0281732 -0.33969441 2.4644828 7.561122e-39
-0.99075747 -0.33054838 2.3981283 7.4689292e-39
-0.99457115 -0.33511278 2.4312429 7.2848967e-39
-0.99428272 -0.33837265 2.4548934 7.5614822e-39
-1.0108696 -0.34749958 2.5211091 7.7462336e-39
-1.0134619 -0.35195318 2.5534201 7.5622039e-39
-1.0014101 -0.35136068 2.5491214 7.8380705e-39
-0.99778348 -0.35374278 2.5664036 7.8373516e-39
-1.0343518 -0.37057573 2.6885266 8.2057712e-39
-1.0144343 -0.36731476 2.6648684 8.1135784e-39
-0.99002826 -0.36234069 2.6287816 7.8369915e-39
-1.0171492 -0.37632212 2.7302167 8.0213813e-39
-0.99850684 -0.37349364 2.7096961 7.7451518e-39
-0.97563702 -0.36900327 2.6771183 7.468925e-39
-0.93790811 -0.3587285 2.6025751 7.3770909e-39
-0.91663206 -0.35458416 2.5725079 7.1923437e-39
-0.89105296 -0.34866062 2.5295324 7.4692908e-39
-0.87873161 -0.34784707 2.5236301 7.8369915e-39
-0.85397184 -0.34203252 2.4814458 7.7458748e-39
-0.84169388 -0.34113804 2.474956 7.5618437e-39
-0.83192116 -0.34124959 2.4757655 7.4696509e-39
-0.82484025 -0.34248152 2.4847033 7.7458748e-39
-0.79902208 -0.33586779 2.4367206 7.7458734e-39
-0.79321736 -0.33760634 2.4493339 7.8373502e-39
-0.78403765 -0.33793432 2.4517133 7.8380677e-39
-0.77433807 -0.33804381 2.4525075 7.6543981e-39
-0.77087712 -0.34091511 2.4733391 7.7465923e-39
-0.76938492 -0.34474438 2.5011201 8.0228191e-39
-0.76352215 -0.34669143 2.5152462 8.4827182e-39
-0.75860655 -0.3491272 2.5329177 8.2061327e-39
-0.74558276 -0.34784707 2.5236301 8.2986885e-39
-0.74552941 -0.35266685 2.5585978 7.9306262e-39
-0.73291612 -0.35159743 2.5508392 7.9306248e-39
-0.741552 -0.36083722 2.6178737 8.2072103e-39
-0.78669208 -0.38836667 2.8175998 8.2990472e-39
-0.78430533 -0.39289954 2.850486 8.29905e-39
-0.76353735 -0.38822219 2.8165517 8.482721e-39
-0.74627602 -0.38521269 2.7947178 8.39124e-39
-0.66812241 -0.41410366 3.0043218 9.129161e-39
-0.64872128 -0.40955305 2.9713073 8.8518581e-39
-0.62900937 -0.40463015 2.9355917 8.5763516e-39
-0.60929883 -0.39951807 2.8985033 8.4841587e-39
-0.5916459 -0.39558044 2.8699358 8.3926806e-39
-0.57455319 -0.39186677 2.8429933 8.4845147e-39
-0.55860972 -0.38880074 2.8207493 8.5763544e-39
-0.54211217 -0.38521269 2.7947178 9.129168e-39
-0.52572405 -0.38155073 2.7681501 9.3131963e-39
-0.50946003 -0.37782085 2.7410901 1.0786175e-38
-0.48982275 -0.37136698 2.6942673 1.7054398e-38
-0.47133985 -0.36551356 2.6518006 2.1851436e-38
-0.45547232 -0.36146215 2.6224077 2.3325496e-38
-0.44146508 -0.3587285 2.6025751 2.341769e-38
-0.42839894 -0.3566443 2.5874541 2.341769e-38
-0.41548374 -0.35458416 2.5725079 2.341769e-38
-0.40380827 -0.35350311 2.5646648 2.341769e-38
-0.39260152 -0.35278606 2.5594628 2.341769e-38
-0.38182664 -0.35242864 2.5568695 2.341769e-38
-0.37182623 -0.35278606 2.5594628 2.341769e-38
-0.3609505 -0.35230964 2.5560064 2.341769e-38
-0.35010406 -0.35183454 2.5525594 2.3417689e-38
-0.3407785 -0.35290539 2.5603282 2.3325854e-38
-0.33038735 -0.35290539 2.5603282 2.2585773e-38
-0.32042962 -0.35338342 2.5637965 1.9721236e-38
-0.30887383 -0.35207194 2.5542817 1.7138313e-38
-0.29790416 -0.35136068 2.5491214 1.5754298e-38
-0.28563502 -0.34901044 2.5320704 1.4648312e-38
-0.27361983 -0.34680665 2.516082 1.4927064e-38
-0.26089382 -0.34349611 2.492064 1.4834146e-38
-0.2464797 -0.33760634 2.4493339 1.5753938e-38
-0.2353967 -0.33597592 2.437505 1.4924536e-38
-0.2247082 -0.33479026 2.4289031 1.5384789e-38
-0.21233 -0.33086279 2.4004092 1.4464637e-38
-0.20188378 -0.32971287 2.3920665 1.50171e-38
-0.19126903 -0.3281576 2.3807833 1.4372443e-38
-0.18223694 -0.32929668 2.3890471 1.455719e-38
-0.17210644 -0.32846749 2.3830314 1.5016726e-38
-0.16263963 -0.32888156 2.3860354 1.4095853e-38
-0.1535365 -0.3301301 2.3950937 1.4740495e-38
-0.1442266 -0.33107272 2.4019322 1.4740493e-38
-0.13704351 -0.33738804 2.4477501 1.5385505e-38
-0.12856406 -0.34124959 2.4757655 1.5846494e-38
-0.12048613 -0.34692195 2.5169184 1.6030166e-38
-0.11063896 -0.34807912 2.5253139 1.6858481e-38
-0.10079335 -0.34947798 2.5354624 1.6767377e-38
-0.091236427 -0.35230964 2.5560064 1.538479e-38
-0.081191741 -0.35374278 2.5664036 1.6305306e-38
-0.071847551 -0.35909882 2.6052618 1.6397864e-38
-0.061634585 -0.3612119 2.6205921 1.6674446e-38
-0.050875574 -0.36033881 2.6142578 1.6121631e-38
-0.040886749 -0.36589804 2.6545901 1.6951761e-38
-0.030760156 -0.37376118 2.711637 1.630495e-38
-0.019386889 -0.36679831 2.6611216 1.5383349e-38
-0.0082670189 -0.35314423 2.5620611 1.5293319e-38
-1.2936085 -0.30944532 2.3131349 7.8348279e-39
-1.275185 -0.31182715 2.3309393 7.7440714e-39
-1.2779218 -0.314832 2.3534009 7.6518785e-39
-1.277904 -0.31719843 2.3710902 7.6522373e-39
-1.2929825 -0.3233763 2.4172704 7.5600431e-39
-1.2939131 -0.32608324 2.437505 7.5596829e-39
-1.2705907 -0.34960806 2.6133554 7.6518757e-39
-1.2848203 -0.35649931 2.6648684 7.8366271e-39
-1.2798613 -0.35813811 2.6771183 7.5607619e-39
-1.2744038 -0.35966426 2.6885266 7.284538e-39
-1.2532562 -0.35675046 2.6667457 7.2848953e-39
-1.2525809 -0.35966426 2.6885266 7.5607619e-39
-1.1974456 -0.3468543 2.5927708 7.8377103e-39
-1.1861104 -0.34661689 2.5909963 7.8373502e-39
-1.1841048 -0.34912601 2.6097522 7.7447944e-39
-1.1698836 -0.34804624 2.6016808 7.7447958e-39
-1.1533793 -0.34626138 2.5883386 7.7444357e-39
-1.1113391 -0.33670697 2.5169184 7.8366299e-39
-1.101124 -0.33670697 2.5169184 7.8369901e-39
-1.0537747 -0.32524553 2.4312429 7.8369901e-39
-1.0623294 -0.33098516 2.4741473 7.8369887e-39
-1.0251516 -0.32244971 2.4103441 7.6529575e-39
-1.0186121 -0.32347956 2.4180424 7.5611178e-39
-1.0143057 -0.32524553 2.4312429 7.4692838e-39
-0.97744417 -0.31650454 2.3659034 7.4689278e-39
-0.98195773 -0.32112065 2.4004092 7.3770909e-39
-0.98029667 -0.32378981 2.4203615 7.3770909e-39
-1.0008708 -0.3339316 2.4961724 7.3767322e-39
-1.0049882 -0.33873397 2.5320704 7.3770937e-39
-0.99504453 -0.33884728 2.5329177 7.3770909e-39
-0.99407679 -0.34205151 2.5568695 7.7451532e-39
-1.0117176 -0.35179386 2.6296947 7.9295416e-39
-0.99896294 -0.35106224 2.6242256 7.8387865e-39
-0.98592025 -0.35021251 2.6178737 7.9302633e-39
-1.0016174 -0.35966426 2.6885266 8.0213785e-39
-0.97410196 -0.35363635 2.6434674 7.8369859e-39
-0.95968747 -0.35228333 2.6333532 7.9291815e-39
-0.92991644 -0.34519923 2.580399 7.9291843e-39
-0.90799332 -0.34090021 2.5482635 7.9291857e-39
-0.88396466 -0.33570254 2.5094104 7.6536806e-39
-0.86546117 -0.33250642 2.4855189 7.7458748e-39
-0.84813416 -0.32969224 2.4644828 7.6536792e-39
-0.83163482 -0.32713649 2.4453781 7.5614822e-39
-0.81356406 -0.32389337 2.4211354 7.929906e-39
-0.80943257 -0.32618827 2.4382901 7.7458762e-39
-0.79112858 -0.32275799 2.4126484 7.6536806e-39
-0.78333384 -0.32358292 2.4188149 7.7458748e-39
-0.77351701 -0.32358292 2.4188149 8.1142958e-39
-0.7617532 -0.32275799 2.4126484 7.8387893e-39
-0.75824386 -0.32545453 2.4328055 7.9313465e-39
-0.75984609 -0.3304452 2.4701111 7.9313437e-39
-0.75598735 -0.3331627 2.4904246 8.3905226e-39
-0.73428595 -0.32798398 2.4517133 8.2068516e-39
-0.73287952 -0.33185273 2.4806325 8.3912429e-39
-0.74127072 -0.34032747 2.543982 8.3908841e-39
-0.72630882 -0.33816847 2.5278432 8.2990486e-39
-0.72845393 -0.34402668 2.5716341 8.39124e-39
-0.71269107 -0.34147489 2.5525594 8.3919589e-39
-0.70280534 -0.34170532 2.5542817 8.4827182e-39
-0.71586621 -0.35326633 2.6407013 8.4830769e-39
-0.70441175 -0.35289705 2.6379411 8.575274e-39
-0.72030932 -0.36643073 2.7391067 8.7593079e-39
-0.68004566 -0.4017511 3.00313 8.4841587e-39
-0.66129947 -0.3978062 2.9736414 8.7600254e-39
-0.64191914 -0.39332604 2.9401517 9.2202847e-39
-0.62344933 -0.38924465 2.9096429 9.0366123e-39
-0.60466886 -0.38480797 2.8764782 8.9444166e-39
-0.58719409 -0.38104385 2.8483412 8.9447754e-39
-0.5702703 -0.37749332 2.8218005 8.9451341e-39
-0.55468315 -0.37470016 2.8009214 8.7607456e-39
-0.53952312 -0.37208471 2.7813706 9.0373325e-39
-0.52266639 -0.36816233 2.7520504 9.1295268e-39
-0.50434715 -0.36301598 2.7135808 9.4053976e-39
-0.48362681 -0.35587299 2.6601865 9.8649282e-39
-0.4666003 -0.35118395 2.6251354 1.2170538e-38
-0.45171714 -0.34792668 2.6007869 1.9724833e-38
-0.438301 -0.34567049 2.5839217 2.2773398e-38
-0.42549059 -0.34379312 2.5698884 2.3325854e-38
-0.41281858 -0.34193605 2.5560064 2.341769e-38
-0.3998799 -0.33975664 2.5397151 2.341769e-38
-0.3874926 -0.33794278 2.5261564 2.341769e-38
-0.37686288 -0.33760485 2.5236301 2.341769e-38
-0.36674291 -0.33771741 2.5244718 2.341769e-38
-0.35554883 -0.33681893 2.5177555 2.341769e-38
-0.34361637 -0.33514711 2.5052583 2.341769e-38
-0.33433378 -0.33603668 2.5119081 2.341769e-38
-0.32456988 -0.33648324 2.5152462 2.341769e-38
-0.31509447 -0.33726758 2.5211091 2.3325137e-38
-0.30395156 -0.33625981 2.513576 2.2584335e-38
-0.29375014 -0.33625981 2.513576 1.9535768e-38
-0.28354871 -0.33625981 2.513576 1.6679143e-38
-0.27190295 -0.334483 2.5002942 1.4834876e-38
-0.25851125 -0.33033744 2.4693055 1.4373532e-38
-0.24458067 -0.3251411 2.4304626 1.4834513e-38
-0.23307049 -0.32286087 2.4134176 1.6216721e-38
-0.2219314 -0.32091716 2.3988881 1.5109638e-38
-0.20999964 -0.31759629 2.3740642 1.4741228e-38
-0.1996133 -0.31640568 2.3651643 1.3174626e-38
-0.18918678 -0.31502786 2.3548648 1.3819992e-38
-0.17974132 -0.31522396 2.3563309 1.4925978e-38
-0.16928241 -0.31356487 2.3439291 1.4372802e-38
-0.15947329 -0.31298348 2.3395832 1.4556837e-38
-0.14988539 -0.31279016 2.3381379 1.6029439e-38
-0.14087456 -0.31385639 2.3461082 1.5107842e-38
-0.13308495 -0.31799516 2.3770459 1.5385865e-38
-0.12453244 -0.3208155 2.3981283 1.612201e-38
-0.11778429 -0.32915649 2.4604781 1.5385161e-38
-0.10836184 -0.33087701 2.4733391 1.5845052e-38
-0.098710708 -0.33217925 2.4830735 1.6492586e-38
-0.089990772 -0.33726758 2.5211091 1.6123801e-38
-0.079599746 -0.33659506 2.516082 1.5477711e-38
-0.070680089 -0.34286207 2.5629284 1.5568825e-38
-0.060772125 -0.34567049 2.5839217 1.6214193e-38
-0.050371166 -0.34626138 2.5883386 1.6398226e-38
-0.040140796 -0.34864527 2.6061587 1.5201483e-38
-0.02937153 -0.34637982 2.5892239 1.5294401e-38
-0.018722232 -0.34379312 2.5698884 1.6121638e-38
-0.0080944477 -0.33559132 2.5085788 1.5107846e-38
-1.3377248 -0.3058511 2.3577983 7.6518743e-39
-1.3215704 -0.30433464 2.3461082 7.3756462e-39
-1.3033346 -0.30452338 2.347563 8.3876429e-39
-1.2648319 -0.30442899 2.3468354 7.6522373e-39
-1.2762752 -0.30951399 2.3860354 7.744793e-39
-1.2709975 -0.31059074 2.3943362 7.5604032e-39
-1.3124567 -0.34727293 2.6771183 7.8362684e-39
-1.276318 -0.34052977 2.6251354 7.6518771e-39
-1.2839165 -0.34544069 2.6629937 7.8359097e-39
-1.2740048 -0.34568387 2.6648684 7.6522401e-39
-1.2672038 -0.34678245 2.6733372 7.6525974e-39
-1.2423165 -0.34290779 2.6434674 7.5607605e-39
-1.2315879 -0.34290779 2.6434674 7.5611206e-39
-1.1941739 -0.33541253 2.5856867 7.561122e-39
-1.1861104 -0.33610126 2.5909963 7.5614822e-39
-1.1788222 -0.33702397 2.5981095 7.3763707e-39
-1.1658771 -0.33633146 2.5927708 7.2845338e-39
-1.146325 -0.33370298 2.5725079 7.5607619e-39
-1.1080239 -0.32551804 2.5094104 7.3770895e-39
-1.0949359 -0.32465714 2.5027738 7.5607619e-39
-1.0374501 -0.31049255 2.3935792 7.7451546e-39
-1.0509951 -0.31751952 2.4477501 7.4689278e-39
-1.0271137 -0.31326568 2.4149573 7.3767322e-39
-1.0173125 -0.31326568 2.4149573 7.284538e-39
-1.009766 -0.31396672 2.4203615 7.4685691e-39
-0.97774971 -0.3069984 2.366643 7.5611235e-39
-0.98102456 -0.31108263 2.3981283 7.6536764e-39
-0.9878763 -0.3163943 2.4390757 7.4685649e-39
-1.0135697 -0.32790914 2.5278432 7.2848939e-39
-1.0120965 -0.33078068 2.5499802 7.469288e-39
-0.99804968 -0.32955968 2.5405674 7.3774525e-39
-1.0001568 -0.33370298 2.5725079 7.4689264e-39
-1.0191514 -0.34362766 2.6490171 7.5611206e-39
-1.004534 -0.34231019 2.6388605 7.4700026e-39
-0.99175006 -0.3415958 2.6333532 7.7455147e-39
-1.0095042 -0.3514989 2.7096961 7.9288256e-39
-0.97957444 -0.34483424 2.6583183 7.9291815e-39
-0.95835412 -0.3411212 2.6296947 8.1128525e-39
-0.9327777 -0.33575654 2.5883386 7.9291829e-39
-0.90860498 -0.33078068 2.5499802 8.0213813e-39
-0.88046271 -0.32422844 2.4994688 7.7455175e-39
-0.8517592 -0.31731436 2.4461682 7.5618437e-39
-0.84101617 -0.31700706 2.4437995 7.5618409e-39
-0.82391727 -0.31426811 2.4226851 7.6536778e-39
-0.80354226 -0.31019834 2.3913109 7.8377117e-39
-0.79761606 -0.31167498 2.4026947 7.9299088e-39
-0.78413188 -0.31019834 2.3913109 7.8387921e-39
-0.7766344 -0.31108263 2.3981283 7.7455161e-39
-0.76787448 -0.3114773 2.4011705 8.2068502e-39
-0.75692892 -0.31098413 2.3973689 8.2068502e-39
-0.75316149 -0.31346565 2.4164989 8.3908841e-39
-0.75418663 -0.31803364 2.4517133 8.2064943e-39
-0.7520293 -0.32136384 2.4773858 8.2064915e-39
-0.73215204 -0.31710944 2.4445887 8.2072089e-39
-0.72810817 -0.31969008 2.4644828 8.2990486e-39
-0.73338485 -0.32649198 2.5169184 8.1150189e-39
-0.71414804 -0.32241887 2.4855189 8.3912429e-39
-0.72062105 -0.33000267 2.543982 8.2997647e-39
-0.70579022 -0.32790914 2.5278432 8.576353e-39
-0.69367796 -0.32703561 2.5211091 8.6681913e-39
-0.69501805 -0.33257294 2.5637965 8.5756327e-39
-0.69140273 -0.33587137 2.5892239 8.7596638e-39
-0.68136036 -0.33610126 2.5909963 8.9436978e-39
-0.68371409 -0.34254897 2.6407013 8.9436964e-39
-0.69883436 -0.35570008 2.7420828 9.1280876e-39
-0.71489275 -0.369762 2.850486 8.7600254e-39
-0.7380594 -0.38802367 2.9912646 8.9444166e-39
-0.72448808 -0.38725862 2.9853671 9.1288079e-39
-0.68168819 -0.38362807 2.9573791 8.3923247e-39
-0.66838014 -0.38288027 2.9516144 8.5759942e-39
-0.65132242 -0.37991795 2.9287779 8.6674696e-39
-0.63331103 -0.37627888 2.9007244 8.9429761e-39
-0.61681187 -0.37341744 2.8786657 8.9440565e-39
-0.59852898 -0.36934483 2.84727 8.6678283e-39
-0.58107293 -0.36563212 2.8186488 8.4834385e-39
-0.56521434 -0.36279568 2.7967827 8.6685472e-39
-0.54980147 -0.3601349 2.7762709 8.5759942e-39
-0.53441846 -0.35738277 2.755055 8.3001262e-39
-0.51795936 -0.35377806 2.7272661 8.7607442e-39
-0.50111413 -0.34974641 2.6961861 8.7611058e-39
-0.47991699 -0.34242952 2.6397805 9.1298869e-39
-0.4633868 -0.33818454 2.6070561 9.2213623e-39
-0.44909447 -0.33541253 2.5856867 1.0600698e-38
-0.43606856 -0.33347636 2.570761 1.3831142e-38
-0.42290664 -0.3313387 2.5542817 2.0557112e-38
-0.40963772 -0.32900766 2.5363119 2.3141463e-38
-0.39589572 -0.32616669 2.5144107 2.3417689e-38
-0.38264096 -0.32358745 2.4945273 2.341769e-38
-0.36923209 -0.32073411 2.4725313 2.341769e-38
-0.35675058 -0.31854942 2.4556894 2.341769e-38
-0.34499365 -0.31690478 2.4430108 2.341769e-38
-0.33346456 -0.31537825 2.4312429 2.341769e-38
-0.32338962 -0.31517583 2.4296825 2.341769e-38
-0.31312671 -0.31477177 2.4265676 2.341769e-38
-0.30396041 -0.31547958 2.432024 2.3417689e-38
-0.29361835 -0.31497368 2.428124 2.3417689e-38
-0.28467676 -0.31598711 2.4359365 2.3325496e-38
-0.27523324 -0.31649625 2.4398618 2.2584698e-38
-0.26473379 -0.31578389 2.43437 1.8155723e-38
-0.2539556 -0.31467089 2.4257901 1.5112551e-38
-0.24201676 -0.31197202 2.4049845 1.5386605e-38
-0.23100857 -0.31029633 2.3920665 1.4372437e-38
-0.2201872 -0.30873558 2.3800349 1.4371357e-38
-0.20875587 -0.30613711 2.3600035 1.5293675e-38
-0.19763754 -0.30376983 2.341754 1.5200409e-38
-0.18714939 -0.30218089 2.329505 1.4188053e-38
-0.17764038 -0.30208793 2.3287883 1.4464283e-38
-0.12019227 -0.30024087 2.3145492 1.529332e-38
-0.11144596 -0.30199504 2.3280723 1.5293678e-38
-0.10378461 -0.30728656 2.3688645 1.4925615e-38
-0.094793372 -0.30931902 2.3845325 1.4556115e-38
-0.085763976 -0.31167498 2.4026947 1.4281321e-38
-0.075676344 -0.31029633 2.3920665 1.4188768e-38
-0.066769741 -0.31406713 2.4211354 1.4097655e-38
-0.057181221 -0.31537825 2.4312429 1.5295119e-38
-0.048497587 -0.32326791 2.492064 1.5938338e-38
-0.039328501 -0.33122694 2.5534201 1.4925612e-38
-0.028703995 -0.32823792 2.5303779 1.4833061e-38
-0.018471433 -0.32889748 2.5354624 1.5385873e-38
-0.0079521621 -0.31969008 2.4644828 1.584397e-38
-1.3385398 -0.29435682 2.3424785 7.6518785e-39
-1.3273901 -0.29399297 2.3395832 7.4671272e-39
-1.3195258 -0.29435682 2.3424785 7.467846e-39
-1.2965004 -0.29344887 2.3352532 7.743714e-39
-1.2462882 -0.29058072 2.3124285 7.4682062e-39
-1.2627443 -0.29665145 2.3607392 7.467846e-39
-1.2614232 -0.29860678 2.3762996 7.3760119e-39
-1.2740574 -0.33206326 2.6425447 7.6522359e-39
-1.2611316 -0.33148476 2.6379411 7.743714e-39
-1.256555 -0.33310968 2.6508722 7.7444315e-39
-1.2405839 -0.33171591 2.6397805 7.6529547e-39
-1.2315879 -0.33217919 2.6434674 7.7451532e-39
-1.19092 -0.32403311 2.5786412 7.8369915e-39
-1.182065 -0.32447517 2.5821593 7.7455133e-39
-1.1727852 -0.32480752 2.5848041 7.8366243e-39
-1.1674764 -0.32625556 2.5963275 7.8369859e-39
-1.1298174 -0.31860724 2.5354624 7.7455119e-39
-1.0881861 -0.30968791 2.4644828 7.3767294e-39
-1.0824121 -0.31090236 2.4741473 7.3763707e-39
-1.0394218 -0.30134979 2.3981283 7.5607619e-39
-1.0516752 -0.30778429 2.4493339 7.653675e-39
-1.0199561 -0.30134979 2.3981283 7.6533191e-39
-1.0137554 -0.30240345 2.4065132 7.3767336e-39
-1.0033507 -0.30221131 2.4049845 7.4685691e-39
-0.96657026 -0.29399297 2.3395832 7.6529575e-39
-0.96452653 -0.2962819 2.3577983 7.7447944e-39
-0.98660487 -0.30610079 2.4359365 7.7451518e-39
-1.0335858 -0.32392278 2.5777633 7.7455119e-39
-1.028728 -0.32569709 2.5918832 7.6529575e-39
-1.0143888 -0.32447517 2.5821593 7.7455147e-39
-1.0160377 -0.32839531 2.6133554 7.4692852e-39
-1.0252498 -0.33486843 2.6648684 7.8369887e-39
-1.0091065 -0.33310968 2.6508722 7.5611235e-39
-1.0008007 -0.33392814 2.6573853 7.8377089e-39
-1.0131303 -0.34172457 2.7194293 7.4689264e-39
-0.98650217 -0.33640778 2.6771183 7.7458692e-39
-0.95968747 -0.33090827 2.6333532 7.5611192e-39
-0.92959958 -0.32414353 2.5795197 7.837346e-39
-0.84852737 -0.30269209 2.4088104 7.4700068e-39
-0.83821774 -0.30249959 2.4072785 7.3774511e-39
-0.83109033 -0.3034645 2.4149573 8.0213757e-39
-0.81504953 -0.30115899 2.39661 8.1128539e-39
-0.79950184 -0.29898217 2.3792868 8.0221016e-39
-0.79233551 -0.29992473 2.3867877 7.9309864e-39
-0.7806797 -0.2991702 2.3807833 7.8384306e-39
-0.77198833 -0.29954699 2.3837817 7.9299074e-39
-0.76279402 -0.29973575 2.3852837 7.8380691e-39
-0.75240213 -0.29945269 2.3830314 8.0224589e-39
-0.74531108 -0.30049312 2.3913109 8.0224575e-39
-0.7445423 -0.30414361 2.4203615 8.4827154e-39
-0.73542452 -0.30443561 2.4226851 8.3905212e-39
-0.71642178 -0.30058807 2.3920665 8.4827182e-39
-0.7134763 -0.3034645 2.4149573 8.3912443e-39
-0.70842057 -0.305511 2.4312429 8.1153776e-39
-0.68816668 -0.30096844 2.3950937 8.4834399e-39
-0.70475459 -0.31263924 2.4879694 8.299406e-39
-0.69102377 -0.31100401 2.474956 8.3919617e-39
-0.67809731 -0.30968791 2.4644828 8.66855e-39
-0.68733704 -0.31860724 2.5354624 8.6681913e-39
-0.68184203 -0.32086381 2.5534201 8.5759942e-39
-0.66586453 -0.31818101 2.5320704 8.760024e-39
-0.66178542 -0.32118881 2.5560064 8.6674682e-39
-0.65053326 -0.32075563 2.5525594 8.7600254e-39
-0.65451741 -0.32794252 2.6097522 8.760024e-39
-0.67098719 -0.34172457 2.7194293 8.4834357e-39
-0.65853107 -0.34098968 2.7135808 8.6681857e-39
-0.67459863 -0.35525066 2.827069 8.6671081e-39
-0.66811454 -0.35792372 2.8483412 8.6671095e-39
-0.64946848 -0.35406074 2.8175998 8.2997647e-39
-0.64330024 -0.35698357 2.8408597 8.5752726e-39
-0.63129675 -0.35671589 2.8387291 8.2075719e-39
-0.62351632 -0.35886881 2.8558621 8.2994088e-39
-0.60848278 -0.35684967 2.8397939 8.2990486e-39
-0.59119189 -0.35340312 2.8123665 8.4834371e-39
-0.5759269 -0.3510558 2.7936866 8.2072103e-39
-0.56024724 -0.34835637 2.7722046 8.4841573e-39
-0.5448069 -0.34569812 2.7510505 8.4841587e-39
-0.52921867 -0.34283289 2.7282488 8.3001262e-39
-0.51169223 -0.33856273 2.6942673 8.4845161e-39
-0.49459705 -0.33439761 2.6611216 8.3926806e-39
-0.47791731 -0.33033377 2.6287816 8.4845147e-39
-0.46243137 -0.32692826 2.6016808 8.6689087e-39
-0.44710934 -0.32348222 2.5742574 8.944418e-39
-0.43385875 -0.32140583 2.5577333 9.0366095e-39
-0.42049488 -0.31914166 2.5397151 1.0418112e-38
-0.40664071 -0.3163822 2.5177555 1.6504453e-38
-0.39134666 -0.31233132 2.4855189 2.1943277e-38
-0.37643933 -0.3083829 2.4540975 2.3417331e-38
-0.36271691 -0.30521694 2.4289031 2.3417689e-38
-0.34982887 -0.30259582 2.4080441 2.341769e-38
-0.33726668 -0.30011395 2.3882935 2.341769e-38
-0.3265436 -0.2991702 2.3807833 2.341769e-38
-0.31678152 -0.29907614 2.3800349 2.341769e-38
-0.30702558 -0.29898217 2.3792868 2.341769e-38
-0.29746267 -0.29907614 2.3800349 2.341769e-38
-0.28762239 -0.29888824 2.3785393 2.341769e-38
-0.27858168 -0.29954699 2.3837817 2.341769e-38
-0.26958609 -0.30030343 2.3898013 2.341769e-38
-0.26005119 -0.30049312 2.3913109 2.3140749e-38
-0.25018796 -0.30030343 2.3898013 2.2030807e-38
-0.23980761 -0.29945269 2.3830314 1.8063155e-38
-0.22999123 -0.29926431 2.3815322 1.5664269e-38
-0.21908523 -0.29757938 2.3681235 1.5018174e-38
-0.2078488 -0.29527041 2.3497488 1.5018534e-38
-0.19690667 -0.29317757 2.3330941 1.6305677e-38
-0.18600474 -0.29093617 2.3152571 1.5569539e-38
-0.026572511 -0.29435682 2.3424785 1.5016729e-38
-0.016960546 -0.29254651 2.3280723 1.575394e-38
-0.0075491476 -0.29399297 2.3395832 1.5384074e-38
-1.3224859 -0.28344661 2.3309393 7.1916207e-39
-1.3240322 -0.2858226 2.3504784 7.2841736e-39
-1.2901332 -0.28257662 2.3237848 7.2841736e-39
-1.2541409 -0.28511447 2.344655 7.2841722e-39
-1.2396343 -0.28397119 2.3352532 7.1916179e-39
-1.2740574 -0.32133842 2.6425447 7.284175e-39
-1.2615712 -0.3208904 2.6388605 7.4682062e-39
-1.2556757 -0.32212546 2.6490171 7.5607591e-39
-1.2449245 -0.32212546 2.6490171 7.652596e-39
-1.2328794 -0.32178769 2.6462393 7.7451518e-39
-1.19092 -0.31356764 2.5786412 7.7455119e-39
-1.182065 -0.31399542 2.5821593 7.6533177e-39
-1.1747906 -0.3148545 2.5892239 7.7451518e-39
-1.1702857 -0.31647801 2.6025751 7.6529547e-39
-1.1283059 -0.30790454 2.5320704 7.3770895e-39
-1.0818472 -0.29793999 2.4501264 7.561122e-39
-1.0650101 -0.29602399 2.43437 7.7451518e-39
-1.0175053 -0.2854681 2.347563 7.5607591e-39
-1.029689 -0.29161692 2.3981283 7.837346e-39
-1.0109894 -0.28905323 2.3770459 7.7455119e-39
-0.99914616 -0.28841937 2.3718328 7.6529589e-39
-0.97156197 -0.28318503 2.3287883 7.5604032e-39
-0.95236611 -0.28309795 2.3280723 7.8369887e-39
-0.9508118 -0.2854681 2.347563 8.0213785e-39
-1.0446116 -0.31680474 2.6052618 8.0217373e-39
-1.0383258 -0.31811836 2.6160645 7.9299018e-39
-1.0266441 -0.31778896 2.6133554 7.7458706e-39
-1.0087256 -0.3155019 2.594548 8.0217373e-39
-1.0119411 -0.32325652 2.6583183 7.7447958e-39
-1.0039723 -0.3241671 2.6658065 7.8380677e-39
-1.0080611 -0.32903308 2.7058222 7.5618395e-39
-0.98580498 -0.32531258 2.6752264 7.653675e-39
-0.84327859 -0.28778824 2.366643 7.9295402e-39
-0.83602554 -0.28860018 2.3733201 7.745872e-39
-0.82977486 -0.28978112 2.3830314 7.8377089e-39
-0.82871121 -0.29282272 2.4080441 8.2054083e-39
-0.81145334 -0.29014641 2.3860354 8.3890806e-39
-0.79899961 -0.28914404 2.3777924 8.2983256e-39
-0.79208577 -0.29014641 2.3860354 8.0221002e-39
-0.7806797 -0.28950772 2.3807833 8.0224603e-39
-0.77369356 -0.29051265 2.3890471 8.2068488e-39
-0.76183391 -0.28968993 2.3822815 8.2986857e-39
-0.74886638 -0.28841937 2.3718328 8.1142958e-39
-0.74343252 -0.29005501 2.3852837 7.7462336e-39
-0.7400471 -0.29254356 2.4057486 8.2994046e-39
-0.73378086 -0.29394463 2.4172704 8.0235365e-39
-0.71394044 -0.28987235 2.3837817 8.0231778e-39
-0.71553046 -0.29450881 2.42191 8.0224589e-39
-0.69810164 -0.29968575 2.4644828 8.2994074e-39
-0.68012923 -0.29621446 2.4359365 8.2990486e-39
-0.67197257 -0.29697889 2.4422228 8.3916016e-39
-0.68230993 -0.30606204 2.5169184 8.2075705e-39
-0.67614102 -0.30790454 2.5320704 8.4837986e-39
-0.65148395 -0.30125478 2.4773858 8.6678269e-39
-0.62948245 -0.29564375 2.4312429 8.6674696e-39
-0.63344771 -0.3022438 2.4855189 8.5756355e-39
-0.63123506 -0.30606204 2.5169184 8.5756341e-39
-0.61814308 -0.30464414 2.5052583 8.2990458e-39
-0.61695826 -0.30914527 2.5422735 8.2997647e-39
-0.6093002 -0.31050071 2.5534201 8.5756313e-39
-0.60320938 -0.31271556 2.5716341 8.6674682e-39
-0.61578047 -0.32485342 2.6714506 8.6667479e-39
-0.62706476 -0.3367354 2.7691627 8.6667465e-39
-0.62335002 -0.34084952 2.8029954 8.4837972e-39
-0.61310899 -0.34148166 2.8081939 8.2072131e-39
-0.60238218 -0.34186208 2.8113222 8.2997661e-39
-0.58704853 -0.33959225 2.7926562 8.3923205e-39
-0.57024544 -0.3363663 2.7661273 8.4837986e-39
-0.5545615 -0.33368415 2.7440705 8.6681885e-39
-0.53893191 -0.33092543 2.7213843 8.6674696e-39
-0.522627 -0.32762796 2.6942673 8.7596652e-39
-0.50539726 -0.3235974 2.6611216 8.3001234e-39
-0.48960632 -0.32033214 2.6342695 8.4845175e-39
-0.47380444 -0.31691378 2.6061587 8.7611016e-39
-0.45943162 -0.31431702 2.5848041 8.4848762e-39
-0.44604769 -0.31229123 2.5681448 8.7607456e-39
-0.43254361 -0.31008238 2.5499802 8.8529399e-39
