# .PCD v0.7 - Point Cloud Data file format
VERSION 0.7
FIELDS x y z rgb
SIZE 4 4 4 4
TYPE F F F F
COUNT 1 1 1 1
WIDTH 1008
HEIGHT 1
VIEWPOINT 0 0 0 1 0 0 0
POINTS 1008
DATA ascii
-0.30269182 0.22686496 0.64969456 5.6242922e-39
-0.29274756 0.22733317 0.65103543 6.0856276e-39
-0.28726545 0.22717689 0.65058786 6.1774645e-39
-0.13625757 0.22634055 0.6481927 5.9945138e-39
-0.13155934 0.22731362 0.65097946 6.2700259e-39
-0.12890625 0.22729409 0.65092349 5.3484297e-39
-0.12319897 0.22651508 0.64869255 6.8231941e-39
-0.12081468 0.22698185 0.65002924 6.5473261e-39
-0.11856335 0.22772482 0.65215701 7.0079413e-39
-0.11630728 0.22849244 0.65435529 6.3625775e-39
-0.11358284 0.22835428 0.65395963 6.4547759e-39
-0.11076608 0.22801945 0.65300077 6.455492e-39
-0.10824657 0.22829512 0.65379024 6.8242717e-39
-0.075965948 0.22698185 0.65002924 6.0870696e-39
-0.073033072 0.22606957 0.64741671 6.4554864e-39
-0.070750371 0.22717689 0.65058786 6.8235528e-39
-0.066504061 0.22182056 0.63524842 6.0863493e-39
-0.063717388 0.22109705 0.63317645 6.0867108e-39
-0.061209053 0.22131917 0.63381255 6.3636621e-39
-0.058695674 0.22154173 0.6344499 6.7324446e-39
-0.057612598 0.22743097 0.65131545 6.7320845e-39
-0.053613205 0.22182056 0.63524842 6.7324418e-39
-0.05237991 0.22766599 0.65198851 6.4562136e-39
-0.049682453 0.22743097 0.65131545 6.271458e-39
-0.047014806 0.22731362 0.65097946 6.1796239e-39
-0.04432705 0.22707933 0.65030843 6.2714608e-39
-0.038964793 0.22659273 0.64891493 5.8104855e-39
-0.03631248 0.22647627 0.64858139 7.0994264e-39
-0.033622589 0.2260889 0.64747208 6.9161156e-39
-0.03096303 0.22585711 0.64680827 6.3632991e-39
-0.028200611 0.22476259 0.64367378 6.3640166e-39
-0.025499361 0.22398183 0.64143783 7.1008628e-39
-0.022954412 0.22455257 0.64307237 6.8249933e-39
-0.020410364 0.22527972 0.64515471 6.6398846e-39
-0.017775325 0.22506875 0.64455056 7.1919822e-39
-0.01508747 0.22400081 0.64149219 6.3633005e-39
-0.012478671 0.22390595 0.64122051 6.6395259e-39
-0.0098445769 0.22318763 0.63916343 7.2838163e-39
-0.0072812508 0.22413374 0.64187288 6.5476876e-39
-0.0046897116 0.22478169 0.64372849 6.5476876e-39
-0.0020833227 0.22545263 0.64564991 7.2838065e-39
0.00054070697 0.22698185 0.65002924 7.743707e-39
0.0031747788 0.22668989 0.64919317 7.1004956e-39
0.005832552 0.2275876 0.65176404 7.1004998e-39
0.0084032407 0.22558729 0.64603555 7.3749315e-39
0.010990493 0.2248773 0.64400226 7.283089e-39
0.013606508 0.22491556 0.64411187 6.6395231e-39
0.016276041 0.22568358 0.64631134 6.6398832e-39
0.045226347 0.22616626 0.64769363 7.1008628e-39
0.04790831 0.22641808 0.64841479 7.0079441e-39
0.050565902 0.22653449 0.64874816 7.099781e-39
0.053194307 0.22651508 0.64869255 8.299043e-39
0.055702947 0.22601159 0.64725065 8.8522112e-39
0.058071669 0.22501127 0.64438599 6.0867164e-39
0.060614698 0.22474347 0.64361906 5.9012434e-39
0.063199982 0.22464798 0.64334559 8.847898e-39
0.065699354 0.22426684 0.64225405 8.3887205e-39
0.068369761 0.22447631 0.64285392 7.8366229e-39
0.070870481 0.22413374 0.64187288 6.7331536e-39
0.073382214 0.22384907 0.64105767 7.0090259e-39
0.075785041 0.22326303 0.63937932 7.5604046e-39
0.078346893 0.22316879 0.63910949 7.4682048e-39
0.080961242 0.22322533 0.63927138 7.193057e-39
0.083612218 0.22337621 0.63970351 7.0086685e-39
0.086332478 0.22369754 0.64062369 7.467846e-39
0.08894752 0.22373541 0.64073211 6.3632963e-39
0.091547951 0.22373541 0.64073211 6.0867094e-39
0.094029009 0.22345173 0.63991976 7.1919696e-39
0.096634313 0.22347063 0.63997388 8.4830713e-39
0.099089265 0.22314996 0.63905555 7.3763763e-39
0.10173441 0.22326303 0.63937932 7.0994292e-39
0.1043646 0.22333847 0.63959539 7.6525974e-39
0.10696946 0.22335735 0.63964945 6.9157512e-39
0.10933456 0.22288656 0.63830119 5.9937963e-39
0.11201956 0.22307463 0.63883984 6.5469659e-39
0.11466069 0.22316879 0.63910949 6.3629348e-39
0.11738335 0.22341397 0.63981164 7.2830932e-39
0.11977759 0.22303699 0.63873202 8.4809119e-39
0.12251461 0.22330074 0.63948733 7.1919752e-39
0.12492006 0.22296175 0.63851655 7.191978e-39
0.12762989 0.22316879 0.63910949 7.2838121e-39
0.13017978 0.22309346 0.63889372 7.4682034e-39
0.13278395 0.22311229 0.63894767 7.0068679e-39
0.13552582 0.22335735 0.63964945 7.0990621e-39
0.13870782 0.2243049 0.64236301 7.468925e-39
0.1417599 0.22501127 0.64438599 7.8380705e-39
0.14457203 0.22531812 0.64526469 7.2838177e-39
0.14699042 0.22501127 0.64438599 6.6402433e-39
0.14988633 0.22543341 0.64559484 7.8377075e-39
0.15193643 0.22459073 0.64318162 7.7444301e-39
0.16577193 0.22928512 0.65662539 7.2841708e-39
0.16880286 0.22978336 0.65805221 7.2838135e-39
0.17226717 0.23084679 0.66109771 7.5600402e-39
0.17521034 0.23118998 0.66208053 7.3760091e-39
0.1765848 0.22948416 0.65719539 7.2845324e-39
0.17820017 0.22813751 0.65333885 7.3760147e-39
0.18050906 0.22770521 0.65210086 7.6504408e-39
0.18301377 0.22752883 0.65159571 6.5469687e-39
0.18533926 0.22713786 0.65047604 6.2718224e-39
0.18815705 0.22735272 0.6510914 7.3763749e-39
0.19075032 0.22729409 0.65092349 7.6515212e-39
0.19324256 0.22711834 0.65042019 6.0870724e-39
0.19600019 0.227255 0.65081155 6.639886e-39
0.19835165 0.22692339 0.64986187 6.2710965e-39
0.20081677 0.22672877 0.64930451 7.3763707e-39
0.2032254 0.22647627 0.64858139 8.1142958e-39
0.20635267 0.22702083 0.65014088 6.8242703e-39
0.20924284 0.22729409 0.65092349 6.3640166e-39
0.21213998 0.227568 0.65170789 6.5487652e-39
0.21450797 0.22727455 0.65086752 6.7327977e-39
0.21433038 0.22432393 0.64241755 7.468209e-39
0.21540232 0.22273633 0.63787097 8.1117735e-39
0.21713132 0.2218578 0.63535506 8.4812721e-39
0.21994987 0.22210011 0.63604897 6.7320774e-39
0.22223257 0.22180195 0.63519514 7.2845338e-39
0.23321946 0.22748968 0.6514836 8.0210128e-39
0.23820013 0.22719641 0.65064377 7.6518771e-39
0.24425812 0.22792116 0.65271926 7.3770895e-39
0.24741915 0.22839373 0.65407264 7.4685649e-39
0.24979317 0.22813751 0.65333885 7.5589612e-39
0.25251013 0.22819659 0.65350807 7.2834534e-39
0.25500834 0.22805879 0.65311342 7.191978e-39
0.25734821 0.22778369 0.65232557 7.6525918e-39
0.2600629 0.22784258 0.65249425 8.2046866e-39
0.26246226 0.22762679 0.65187627 7.9281025e-39
0.26472041 0.22729409 0.65092349 7.5600388e-39
0.26736051 0.22506875 0.64455056 8.1114106e-39
0.26697618 0.22256756 0.63738769 7.8348265e-39
-0.39248294 0.22357333 0.6329118 5.6246509e-39
-0.3894259 0.22329332 0.63211912 5.8086834e-39
-0.3843573 0.22184855 0.62802911 5.9001602e-39
-0.38177678 0.22183014 0.62797701 5.9001588e-39
-0.38090262 0.22280964 0.63074988 5.9001588e-39
-0.37834272 0.22280964 0.63074988 5.9930719e-39
-0.37647283 0.22321878 0.63190806 5.9008748e-39
-0.37375224 0.22312567 0.63164449 5.9005161e-39
-0.37066296 0.22280964 0.63074988 6.1767429e-39
-0.36844069 0.22301403 0.63132846 6.177103e-39
-0.36566499 0.22288392 0.63096017 5.8090421e-39
-0.3630437 0.22284678 0.63085496 5.625011e-39
-0.36051342 0.22286534 0.63090754 5.5320979e-39
-0.35855043 0.22323741 0.63196081 6.0841913e-39
-0.35693905 0.2238353 0.6336534 6.2689427e-39
-0.3524206 0.22260565 0.63017237 5.9930733e-39
-0.35073885 0.2231629 0.63174987 5.8093995e-39
-0.34724763 0.22256859 0.63006747 5.9012378e-39
-0.34446114 0.2224205 0.62964827 5.9019552e-39
-0.34410933 0.22385404 0.63370645 5.9934306e-39
-0.34145167 0.22379784 0.63354737 6.177103e-39
-0.33947697 0.22419181 0.63466263 6.5469617e-39
-0.33687297 0.22417302 0.63460946 6.8235514e-39
-0.34145272 0.22897124 0.6481927 5.9015979e-39
-0.3368035 0.22760716 0.64433116 5.7164878e-39
-0.32925662 0.22424822 0.63482231 5.7168479e-39
-0.33225206 0.22807302 0.64564991 5.8090407e-39
-0.32745349 0.22656593 0.64138347 5.8090421e-39
-0.32520857 0.22681572 0.64209062 5.6246495e-39
-0.32386613 0.22770406 0.64460546 6.1774589e-39
-0.32215515 0.22834565 0.64642167 6.5462428e-39
-0.31623748 0.22599156 0.63975757 6.3629348e-39
-0.31311184 0.22561027 0.63867813 5.9019608e-39
-0.31096572 0.22593428 0.63959539 5.6246551e-39
-0.30666003 0.22468153 0.63604897 5.6246523e-39
-0.13460954 0.22620182 0.64035279 6.1774687e-39
-0.13213357 0.22641248 0.64094913 5.9015993e-39
-0.129106 0.22566739 0.63883984 6.3625775e-39
-0.12710313 0.22671957 0.64181846 5.7182899e-39
-0.12137897 0.22576264 0.63910949 6.5473246e-39
-0.11879515 0.22578169 0.63916343 6.5476862e-39
-0.11625998 0.22589612 0.63948733 6.5469645e-39
-0.11021277 0.22415423 0.63455623 6.4551346e-39
-0.11028098 0.22965944 0.65014088 6.1785449e-39
-0.077394716 0.22608709 0.64002794 6.1796295e-39
-0.074759223 0.22597247 0.63970351 6.1792652e-39
-0.071841247 0.22496502 0.63685149 7.5607521e-39
-0.069035895 0.22424822 0.63482231 7.3770825e-39
-0.066476174 0.22430463 0.63498205 6.1803414e-39
-0.063669465 0.2234986 0.6327002 5.9033958e-39
-0.061147623 0.22366682 0.63317645 6.0874297e-39
-0.058646526 0.223929 0.6339187 6.4565752e-39
-0.056101937 0.22404157 0.63423729 7.0079483e-39
-0.053568255 0.22421061 0.63471586 7.3760077e-39
-0.051005073 0.22426702 0.63487554 6.3636579e-39
-0.048469059 0.22445524 0.6354084 6.9157526e-39
-0.04698249 0.22979757 0.65053195 6.639886e-39
-0.044220697 0.22916745 0.64874816 6.4554892e-39
-0.041438598 0.22834565 0.64642167 7.284531e-39
-0.038848251 0.22854078 0.64697409 6.7324446e-39
-0.036182292 0.22828716 0.64625615 6.2703832e-39
-0.033519387 0.22801468 0.64548475 6.5473261e-39
-0.030826082 0.22747165 0.64394748 6.2707406e-39
-0.028043253 0.2261062 0.64008206 6.4562108e-39
-0.025372529 0.22545812 0.63824743 7.0090231e-39
-0.022807181 0.22570547 0.63894767 7.1926983e-39
-0.020258449 0.22620182 0.64035279 7.0994236e-39
-0.01765508 0.22614445 0.6401903 7.008307e-39
-0.015022554 0.2256293 0.63873202 6.7320788e-39
-0.012421858 0.22547713 0.63830119 6.8239171e-39
-0.0098172259 0.22515441 0.63738769 6.7313628e-39
-0.0072456216 0.2256293 0.63873202 6.6395245e-39
-0.004651349 0.22553417 0.63846272 6.1792638e-39
-0.002063961 0.22595337 0.63964945 7.0065063e-39
0.00053460221 0.22702752 0.64269024 7.282373e-39
0.00314859 0.22743297 0.64383799 7.8366229e-39
0.005770456 0.22778164 0.64482504 7.8387781e-39
0.0083356677 0.22637415 0.64084059 7.3767266e-39
0.010920822 0.22604887 0.63991976 7.1001411e-39
0.01351681 0.22602977 0.6398657 6.8239185e-39
0.016198602 0.2272204 0.64323628 7.3767266e-39
0.042626839 0.22895165 0.64813721 7.1005026e-39
0.045207009 0.22869712 0.64741671 6.6395231e-39
0.047900103 0.22901046 0.64830369 7.2848897e-39
0.050518285 0.22895165 0.64813721 6.5484093e-39
0.053171527 0.22904968 0.64841479 7.1926997e-39
0.055626858 0.22832614 0.64636648 8.114293e-39
0.058002554 0.22735561 0.64361906 6.0874353e-39
0.060542643 0.22708535 0.64285392 6.2693098e-39
0.063183874 0.2272011 0.64318162 5.8061611e-39
0.065677069 0.22679649 0.6420362 7.8348251e-39
0.068294376 0.22683495 0.6421451 1.1336457e-38
0.07083445 0.22662352 0.64154655 7.741549e-39
0.073320135 0.22625923 0.64051527 7.4674887e-39
0.075746655 0.22574358 0.63905555 6.7317215e-39
0.078307234 0.22564834 0.6387859 7.0994292e-39
0.080947571 0.22578169 0.63916343 6.6391658e-39
0.08354868 0.22580075 0.63921738 6.9164715e-39
0.086259492 0.2261062 0.64008206 8.2950886e-39
0.088812232 0.22599156 0.63975757 6.5480491e-39
0.091331527 0.22580075 0.63921738 5.5346231e-39
0.093870327 0.22566739 0.63883984 6.3636551e-39
0.096503787 0.22576264 0.63910949 7.6533135e-39
0.098922268 0.22536312 0.63797849 7.1916221e-39
0.10151152 0.22536312 0.63797849 6.6388056e-39
0.10410954 0.22538212 0.63803226 8.7589408e-39
0.10661815 0.22521129 0.63754869 8.4830713e-39
0.10908624 0.22496502 0.63685149 6.3629376e-39
0.11180258 0.22523026 0.63760239 5.2562383e-39
0.11441921 0.22528718 0.6377635 5.9019679e-39
0.11710624 0.22547713 0.63830119 6.3611411e-39
0.11959597 0.22528718 0.6377635 8.4801945e-39
0.12216377 0.22524923 0.63765609 6.9146694e-39
0.12458383 0.2249461 0.63679796 6.270386e-39
0.12729678 0.22517337 0.63744134 7.7444315e-39
0.1299495 0.22528718 0.6377635 7.7447916e-39
0.13261607 0.2254201 0.63813984 7.0079497e-39
0.13536571 0.22568643 0.63889372 7.28238e-39
0.13809852 0.22591521 0.63954139 7.1004998e-39
0.14083689 0.22614445 0.6401903 8.2057712e-39
0.14360513 0.22641248 0.64094913 8.2972494e-39
0.14571299 0.22564834 0.6387859 7.0997824e-39
0.14865671 0.2261827 0.6402986 6.9143107e-39
0.15061846 0.22523026 0.63760239 7.9281025e-39
0.15373704 0.22601067 0.63981164 7.0065077e-39
0.16202496 0.23041132 0.65226936 7.375649e-39
0.1651132 0.23102835 0.65401614 7.2838135e-39
0.1679852 0.2313281 0.65486467 7.4682019e-39
0.17076115 0.23148829 0.65531814 7.6525918e-39
0.17370646 0.23186962 0.6563977 7.6515184e-39
0.1751405 0.23025262 0.65182012 7.6525988e-39
0.17669064 0.22883411 0.64780444 7.284175e-39
0.17938118 0.22891246 0.64802629 7.2830946e-39
0.18213592 0.22906931 0.64847028 6.54661e-39
0.18416832 0.22832614 0.64636648 6.3622201e-39
0.18707912 0.22867757 0.64736134 7.7455119e-39
0.18964158 0.22859938 0.64713997 8.296885e-39
0.19218588 0.22850172 0.64686352 7.6533149e-39
0.19494444 0.22865802 0.64730597 6.732076e-39
0.19735219 0.22840415 0.64658731 6.9178994e-39
0.19975461 0.22815084 0.64587021 6.2721727e-39
0.20211725 0.22785926 0.6450448 7.0075895e-39
0.20536508 0.22856031 0.6470294 7.1923367e-39
0.20799106 0.22856031 0.6470294 7.9302619e-39
0.21137577 0.22938366 0.64936024 6.8242717e-39
0.21091773 0.22606798 0.63997388 6.4554934e-39
0.21250913 0.22500287 0.63695866 6.8239185e-39
0.21464278 0.22453062 0.63562179 7.6515184e-39
0.21691287 0.22421061 0.63471586 7.9288214e-39
0.21952569 0.22424822 0.63482231 7.4685649e-39
0.22187887 0.22402279 0.63418418 7.1001411e-39
0.22479166 0.22436109 0.63514185 7.2848883e-39
0.23014975 0.22710463 0.64290851 7.6522359e-39
0.23023687 0.22464378 0.6359421 7.743714e-39
0.2346112 0.22637415 0.64084059 7.467846e-39
0.23876828 0.22785926 0.6450448 7.5611164e-39
0.24310537 0.22948208 0.64963883 7.4685649e-39
0.24597411 0.2296989 0.65025258 7.929899e-39
0.24867725 0.22975808 0.65042019 7.9281039e-39
0.25155473 0.22997542 0.65103543 7.0072294e-39
0.2540659 0.22985682 0.65069968 7.0079497e-39
0.25659651 0.22975808 0.65042019 7.5607619e-39
0.25921398 0.22973835 0.65036428 6.9153883e-39
0.25576746 0.22439873 0.63524842 7.5586053e-39
0.26017943 0.22599156 0.63975757 8.2036132e-39
0.26096758 0.2244364 0.63535506 8.0206555e-39
0.26412249 0.22492719 0.63674438 8.3880016e-39
0.26590165 0.22424822 0.63482231 8.0192177e-39
-0.39071912 0.22512573 0.63006747 5.7164878e-39
-0.38806507 0.22506954 0.62991023 5.7168479e-39
-0.38467643 0.22458372 0.62855053 5.7164878e-39
-0.38177678 0.22437879 0.62797701 5.6246509e-39
-0.38061723 0.2252007 0.63027728 5.9008762e-39
-0.37755632 0.22490114 0.62943888 5.9005161e-39
-0.37556377 0.2252382 0.63038224 5.9008762e-39
-0.3722305 0.22477032 0.62907279 6.1767429e-39
-0.3688499 0.22426718 0.62766463 6.2685784e-39
-0.36694136 0.22465833 0.62875932 6.1763841e-39
-0.36411735 0.22449052 0.6282897 6.08455e-39
-0.36138749 0.22437879 0.62797701 6.0849088e-39
-0.3590771 0.22452779 0.62839401 5.6239334e-39
-0.35679328 0.22469564 0.62886375 5.4399009e-39
-0.35527387 0.22535078 0.63069731 5.8083219e-39
-0.35101816 0.22426718 0.62766463 5.9008776e-39
-0.34904951 0.22463967 0.62870711 5.8083233e-39
-0.34306312 0.22406286 0.62709278 6.0849074e-39
-0.34293246 0.22565155 0.63153911 6.6373595e-39
-0.33513129 0.22557628 0.63132846 6.3607768e-39
-0.3278347 0.22762629 0.63706589 5.9005175e-39
-0.32489377 0.22737756 0.63636976 5.8090407e-39
-0.32380801 0.22843361 0.63932532 5.7164864e-39
-0.32273951 0.22951899 0.64236301 6.5455268e-39
-0.32149634 0.23049684 0.64509976 6.3618544e-39
-0.31586382 0.22831793 0.63900161 6.4544144e-39
-0.13397495 0.22772209 0.63733399 6.5469715e-39
-0.13139938 0.22774127 0.63738769 6.6380854e-39
-0.12854198 0.22726294 0.63604897 6.6388028e-39
-0.12636398 0.22799079 0.63808602 6.5480477e-39
-0.12311023 0.22676761 0.63466263 6.455492e-39
-0.12100103 0.22764544 0.63711947 6.9153925e-39
-0.1182163 0.22726294 0.63604897 6.4547759e-39
-0.11552811 0.22705312 0.63546169 6.1785449e-39
-0.11256171 0.22627443 0.63328236 6.3636523e-39
-0.10999152 0.22627443 0.63328236 6.0870668e-39
-0.10766448 0.22678663 0.63471586 6.3636523e-39
-0.10501803 0.22663462 0.63429046 7.0994166e-39
-0.077283643 0.22835648 0.63910949 6.3633005e-39
-0.074696109 0.22837575 0.63916343 5.9955956e-39
-0.071859382 0.22760713 0.63701224 7.0994208e-39
-0.06905327 0.22688173 0.63498205 6.8235528e-39
-0.06651523 0.227015 0.63535506 7.1012187e-39
-0.063685432 0.22612311 0.63285887 6.547682e-39
-0.06110163 0.22606643 0.6327002 6.9164687e-39
-0.058587659 0.22627443 0.63328236 6.2725454e-39
-0.056036215 0.22635016 0.63349432 6.7324362e-39
-0.053496499 0.22648282 0.63386559 6.9164687e-39
-0.050915413 0.2264449 0.6337595 6.5494855e-39
-0.048412178 0.22676761 0.63466263 6.3640166e-39
-0.045824856 0.22671059 0.63450307 7.0079483e-39
-0.030591901 0.2283372 0.63905555 6.180347e-39
-0.027941674 0.22787556 0.6377635 6.3643753e-39
-0.025304267 0.2274349 0.63653022 6.4558535e-39
-0.02273236 0.2275497 0.63685149 7.8373432e-39
-0.020181634 0.22793317 0.63792473 9.5865434e-39
-0.017608922 0.22814463 0.63851655 7.6507995e-39
-0.015003566 0.22793317 0.63792473 7.6511583e-39
-0.012414532 0.22793317 0.63792473 7.3760105e-39
-0.009820533 0.227818 0.63760239 7.1001439e-39
-0.0072456216 0.22822161 0.63873202 7.0079497e-39
-0.0046486049 0.22799079 0.63808602 7.1916207e-39
-0.0020634378 0.2284915 0.63948733 6.4551346e-39
0.00053297344 0.22893625 0.64073211 7.1919794e-39
0.0031389801 0.22934386 0.64187288 7.2830974e-39
0.0057513518 0.22963589 0.64269024 8.0210156e-39
0.0083145546 0.22839503 0.63921738 6.6395231e-39
0.010890445 0.22801001 0.63813984 6.3632977e-39
0.013462196 0.22770293 0.63728034 7.0990649e-39
0.016097395 0.22839503 0.63921738 8.2965235e-39
0.045125972 0.23091002 0.64625615 7.0079525e-39
0.047883704 0.2315623 0.64808172 7.4696425e-39
0.050453495 0.23128513 0.64730597 5.8108484e-39
0.053130571 0.23150285 0.64791536 6.362946e-39
0.055475298 0.2303202 0.64460546 5.7175766e-39
0.057791296 0.22913018 0.64127487 4.7052281e-39
0.060368359 0.22903317 0.64100337 4.5190334e-39
0.06297522 0.22905257 0.64105767 3.5037955e-39
0.065504864 0.22880071 0.64035279 4.3331918e-39
0.068069212 0.22868466 0.64002794 7.4678306e-39
0.070619017 0.22853011 0.63959539 1.0415217e-38
0.073116004 0.22822161 0.63873202 7.0068651e-39
0.07556805 0.2277988 0.63754869 5.9959571e-39
0.078162141 0.227818 0.63760239 6.5476932e-39
0.080804311 0.22797158 0.63803226 5.8097708e-39
0.083400808 0.22799079 0.63808602 6.2714664e-39
0.085976005 0.22795238 0.63797849 1.0323029e-38
0.088542871 0.22789477 0.63781726 7.2834506e-39
0.091062427 0.22772209 0.63733399 5.165479e-39
0.093680605 0.2277988 0.63754869 5.5339e-39
0.096333012 0.22795238 0.63797849 7.9299018e-39
0.098747522 0.2275497 0.63685149 7.3763679e-39
0.10135778 0.22760713 0.63701224 5.9952327e-39
0.1039606 0.22764544 0.63711947 7.6540267e-39
0.10641205 0.22735845 0.63631624 9.405022e-39
0.10892131 0.22720568 0.6358887 8.6674626e-39
0.11158644 0.22737756 0.63636976 5.7175738e-39
0.11417875 0.22739667 0.63642323 5.1651245e-39
0.11685993 0.22758798 0.63695866 6.4544158e-39
0.11938478 0.22747315 0.63663733 7.3742042e-39
0.1218354 0.22722477 0.6359421 7.0065063e-39
0.12430154 0.227015 0.63535506 6.3622215e-39
0.12701872 0.22726294 0.63604897 7.3749329e-39
0.1296546 0.22735845 0.63631624 7.3752931e-39
0.13225934 0.22739667 0.63642323 7.4678474e-39
0.13502388 0.22770293 0.63728034 7.7429924e-39
0.13756399 0.22762629 0.63706589 6.6380896e-39
0.14025575 0.2277988 0.63754869 7.651517e-39
0.14303598 0.22810616 0.63840884 7.9270277e-39
0.14528395 0.22756884 0.63690507 8.2958088e-39
0.14801827 0.2277988 0.63754869 7.0068693e-39
0.15025151 0.22726294 0.63604897 7.4682076e-39
0.15283293 0.22726294 0.63604897 7.8362684e-39
0.1599724 0.22640699 0.6336534 7.1908976e-39
0.16265301 0.2265587 0.63407797 7.8366243e-39
0.16525412 0.22659665 0.63418418 7.4678432e-39
0.16787015 0.22665361 0.63434356 7.5596815e-39
0.17065914 0.22693883 0.63514185 7.7444301e-39
0.17345515 0.22722477 0.6359421 8.7585792e-39
0.17695771 0.22841433 0.63927138 8.5741838e-39
0.17953706 0.22839503 0.63921738 8.0213743e-39
0.18208522 0.2283372 0.63905555 6.638807e-39
0.18474121 0.22841433 0.63927138 7.2838177e-39
0.18730408 0.22837575 0.63916343 8.9426118e-39
0.19028369 0.22883943 0.64046109 9.2166791e-39
0.19296464 0.22893625 0.64073211 7.190899e-39
0.19589664 0.22932442 0.64181846 7.7447888e-39
0.19823261 0.22901379 0.64094913 6.7320788e-39
0.20051138 0.228646 0.63991976 6.5484093e-39
0.20350413 0.22909136 0.64116621 6.6398874e-39
0.20516805 0.22804846 0.63824743 7.8359111e-39
0.207846 0.22814463 0.63851655 8.3883604e-39
0.20950098 0.22712937 0.63567513 7.0079469e-39
0.21186742 0.22690076 0.63503528 7.0079483e-39
0.21440876 0.2268627 0.63492876 7.467846e-39
0.21654977 0.22640699 0.6336534 7.5604018e-39
0.2193234 0.22661564 0.63423729 7.3749343e-39
0.22152631 0.22623658 0.63317645 7.1923423e-39
0.22445273 0.22659665 0.63418418 6.6391658e-39
0.22756031 0.22712937 0.63567513 7.3763665e-39
0.2301209 0.2271103 0.63562179 7.0994208e-39
0.23356338 0.22795238 0.63797849 6.8231941e-39
0.2366312 0.22841433 0.63927138 7.745865e-39
0.24101658 0.23012426 0.64405704 7.9288228e-39
0.24352692 0.23002642 0.64378321 8.2054097e-39
0.24643311 0.23030059 0.64455056 7.3752889e-39
0.24936748 0.23059508 0.64537472 6.4544158e-39
0.25125852 0.22992867 0.64350963 7.4685663e-39
0.25376239 0.229831 0.64323628 8.7575016e-39
0.25515896 0.22874267 0.6401903 7.560399e-39
0.25671521 0.227818 0.63760239 7.1912591e-39
0.25921562 0.22774127 0.63738769 7.9266676e-39
0.26031223 0.2264449 0.6337595 8.0202981e-39
0.26352409 0.22699596 0.63530171 7.9284626e-39
0.26474729 0.22583994 0.63206637 8.7567814e-39
-0.38612393 0.22500513 0.62265736 5.4409813e-39
-0.38476771 0.22569191 0.62455791 5.7172067e-39
-0.38314953 0.22623315 0.62605566 5.717564e-39
-0.3802942 0.22604622 0.62553835 5.6253684e-39
-0.37954292 0.22711584 0.62849832 5.532814e-39
-0.37630489 0.22670181 0.6273526 5.348064e-39
-0.37413079 0.22692746 0.62797701 5.716485e-39
-0.3707518 0.22642039 0.62657374 5.9008748e-39
-0.36784354 0.22619574 0.62595212 5.9930705e-39
-0.36602938 0.22664547 0.62719667 5.9930705e-39
-0.36312291 0.22642039 0.62657374 6.3618516e-39
-0.36028177 0.22623315 0.62605566 6.5462457e-39
-0.35794812 0.22636418 0.62641823 6.0859878e-39
-0.35540578 0.22636418 0.62641823 5.7168479e-39
-0.35382956 0.22698395 0.6281333 5.7161262e-39
-0.34994471 0.22612096 0.62574518 6.2693e-39
-0.34754872 0.22621444 0.62600386 6.0849102e-39
-0.34423956 0.22571054 0.62460941 5.7161305e-39
-0.34195846 0.22587825 0.62507355 5.9001588e-39
-0.34080032 0.22679578 0.62761259 5.9927117e-39
-0.33473474 0.22613965 0.62579691 5.8090435e-39
-0.33194798 0.22597155 0.6253317 5.440261e-39
-0.32383534 0.23104784 0.63937932 6.0856304e-39
-0.32268474 0.23208666 0.64225405 5.900879e-39
-0.32122263 0.23291652 0.64455056 6.0852703e-39
-0.31610394 0.23108687 0.63948733 5.9927145e-39
-0.30673733 0.22990231 0.63620931 6.1778219e-39
-0.13413304 0.23058049 0.63808602 6.0859892e-39
-0.13144365 0.23040572 0.63760239 7.0987034e-39
-0.12861761 0.22997962 0.63642323 6.6377266e-39
-0.12055343 0.22458032 0.62148178 6.7302796e-39
-0.12096031 0.23015374 0.63690507 7.1905403e-39
-0.11828586 0.22997962 0.63642323 6.6391629e-39
-0.1143951 0.22738011 0.62922961 6.3632963e-39
-0.11113935 0.22595288 0.62528002 6.6391658e-39
-0.10907006 0.22692746 0.62797701 6.086708e-39
-0.10716137 0.22829084 0.63174987 6.5476848e-39
-0.077198923 0.23069715 0.63840884 7.0075853e-39
-0.074626803 0.23075552 0.63857043 6.0881486e-39
-0.071835205 0.23011503 0.63679796 6.7317201e-39
-0.06905327 0.22945882 0.63498205 6.6395217e-39
-0.066498488 0.22953582 0.63519514 7.284531e-39
-0.063605674 0.22840519 0.63206637 6.9150282e-39
-0.06097424 0.22815758 0.63138109 7.3770839e-39
-0.058460519 0.228348 0.63190806 6.456571e-39
-0.05590057 0.22836708 0.63196081 6.9161114e-39
-0.053389218 0.22859605 0.63259447 6.1781862e-39
-0.050830312 0.22863425 0.6327002 6.917905e-39
-0.048383784 0.2292089 0.63429046 6.5491239e-39
-0.045821019 0.22926652 0.6344499 6.6402419e-39
-0.035803325 0.23108687 0.63948733 6.9171904e-39
-0.033202339 0.23104784 0.63937932 6.7335152e-39
-0.030535197 0.23050278 0.63787097 6.7328019e-39
-0.027897023 0.23009567 0.63674438 7.1927025e-39
-0.025295759 0.22994095 0.63631624 6.3629404e-39
-0.022678943 0.2295936 0.63535506 7.6536722e-39
-0.020130748 0.22994095 0.63631624 8.1128511e-39
-0.017554143 0.23001829 0.63653022 8.2032475e-39
-0.014966994 0.22996028 0.63636976 7.4678432e-39
-0.01238323 0.22994095 0.63631624 7.1916151e-39
-0.0098023713 0.22997962 0.63642323 7.375649e-39
-0.0072267209 0.23021184 0.63706589 7.0090217e-39
-0.0020554515 0.23019247 0.63701224 7.4678446e-39
0.0031233567 0.23079446 0.63867813 7.4682062e-39
0.005718343 0.23091133 0.63900161 7.0997796e-39
0.0082956431 0.23046394 0.6377635 7.2838093e-39
0.010886774 0.2305222 0.63792473 6.8231955e-39
0.01343167 0.22976716 0.63583529 6.8224766e-39
0.02623529 0.22890207 0.63344133 7.9288242e-39
0.031329781 0.22855785 0.63248879 6.6402448e-39
0.033944964 0.22888291 0.63338834 7.9295402e-39
0.044679746 0.23122358 0.6398657 6.7317215e-39
0.047582291 0.23271839 0.64400226 8.666385e-39
0.05017465 0.23261946 0.64372849 7.1919752e-39
0.052818678 0.232758 0.64411187 5.6260984e-39
0.055165302 0.23163471 0.64100337 4.6130297e-39
0.057605881 0.23098932 0.63921738 4.2449646e-39
0.060184915 0.23093082 0.63905555 4.7977783e-39
0.062783837 0.23095033 0.63910949 4.2438842e-39
0.0653501 0.23085289 0.63883984 3.5977904e-39
0.067908466 0.23073606 0.63851655 5.995583e-39
0.070458308 0.23059992 0.63813984 9.0369444e-39
0.072974399 0.23036692 0.63749504 7.1937689e-39
0.075485416 0.23013438 0.63685149 8.2075663e-39
0.078096375 0.23021184 0.63706589 7.4692852e-39
0.080722675 0.23032813 0.63738769 7.1001467e-39
0.083288498 0.23026997 0.6372267 6.3633019e-39
0.085838571 0.2301731 0.63695866 9.0333655e-39
0.088408805 0.23013438 0.63685149 7.9295346e-39
0.090939939 0.22999895 0.63647676 5.903044e-39
0.093570292 0.23011503 0.63679796 5.2583963e-39
0.096211404 0.23025058 0.63717312 6.6395259e-39
0.098706007 0.23003763 0.63658375 7.6529533e-39
0.10132368 0.23011503 0.63679796 6.5476876e-39
0.10387319 0.23003763 0.63658375 7.1934143e-39
0.10633161 0.22976716 0.63583529 8.1124966e-39
0.10893046 0.22980575 0.6359421 9.1266429e-39
0.11156768 0.22992162 0.63626277 8.9433278e-39
0.1141212 0.22986367 0.63610238 6.1789093e-39
0.11682062 0.23009567 0.63674438 5.6253768e-39
0.11935467 0.22999895 0.63647676 5.9923558e-39
0.12174337 0.22963215 0.63546169 5.900879e-39
0.12422856 0.22945882 0.63498205 6.5458925e-39
0.12692274 0.2296707 0.63556838 7.190899e-39
0.12948048 0.22963215 0.63546169 7.375649e-39
0.13208169 0.2296707 0.63556838 7.2827317e-39
0.13480829 0.22992162 0.63626277 6.8228339e-39
0.13709101 0.22942033 0.63487554 6.0859962e-39
0.13971454 0.22949731 0.63508856 6.5458911e-39
0.14263906 0.23005697 0.63663733 7.0050742e-39
0.14466329 0.2291705 0.63418418 7.4664097e-39
0.14718783 0.22909375 0.63397175 7.6515198e-39
0.14921105 0.22825275 0.63164449 7.4678474e-39
0.15152177 0.22787252 0.63059229 7.4671272e-39
0.1540169 0.22777766 0.63032979 7.4671286e-39
0.15583557 0.22670181 0.6273526 7.6518743e-39
0.15909357 0.22772078 0.63017237 7.1912563e-39
0.16225891 0.22857694 0.63254166 7.560036e-39
0.1648261 0.22857694 0.63254166 7.3749287e-39
0.16753326 0.22876808 0.63307053 7.2838121e-39
0.17024495 0.22895953 0.63360035 7.2845254e-39
0.17309166 0.22932418 0.63460946 7.8359013e-39
0.17621376 0.23003763 0.63658375 8.6660235e-39
0.17864713 0.22984436 0.63604897 7.1926899e-39
0.1814267 0.23009567 0.63674438 7.1012229e-39
0.18402642 0.23011503 0.63679796 7.0997894e-39
0.18672082 0.23025058 0.63717312 7.8362642e-39
0.18941841 0.23038632 0.63754869 8.5734663e-39
0.19208679 0.23048335 0.63781726 7.3749315e-39
0.19487239 0.2307166 0.63846272 7.3767252e-39
0.19736375 0.23059992 0.63813984 7.1912605e-39
0.19970116 0.23030874 0.63733399 7.0994222e-39
0.20230483 0.23032813 0.63738769 8.1135714e-39
0.20377655 0.22907457 0.6339187 8.3894366e-39
0.2065915 0.2293434 0.63466263 8.1121322e-39
0.20782581 0.22787252 0.63059229 7.0075881e-39
0.21017502 0.22764499 0.62996262 6.7313628e-39
0.21276715 0.22768287 0.63006747 6.914675e-39
0.21582723 0.22821467 0.63153911 8.3880016e-39
0.21846323 0.22829084 0.63174987 8.0199394e-39
0.22084293 0.22810051 0.6312232 6.9153981e-39
0.22400239 0.22871071 0.6329118 6.9153981e-39
0.22695054 0.22909375 0.63397175 7.4685649e-39
0.22983146 0.2294011 0.63482231 7.7451462e-39
0.23293526 0.22992162 0.63626277 7.0072252e-39
0.23587437 0.23026997 0.6372267 6.6395175e-39
0.23910457 0.23089184 0.63894767 7.1004984e-39
0.24157542 0.23077498 0.63862425 8.7582219e-39
0.24427032 0.23087236 0.63889372 8.7575016e-39
0.24648887 0.2305222 0.63792473 6.5473232e-39
0.24891011 0.23036692 0.63749504 7.5607577e-39
0.25153977 0.23040572 0.63760239 7.8359027e-39
0.25376418 0.23007631 0.63669086 7.55932e-39
0.25641289 0.23013438 0.63685149 7.2838121e-39
0.25871468 0.22988299 0.63615584 7.6518757e-39
0.26044303 0.22913212 0.63407797 7.7440686e-39
0.26270843 0.22886376 0.63333535 7.1923339e-39
0.26397595 0.22773974 0.63022482 7.9284584e-39
-0.38507879 0.22691634 0.62097204 5.440261e-39
-0.38378623 0.22764455 0.62296474 5.6242922e-39
-0.38210684 0.22815143 0.62435186 5.7168465e-39
-0.37922886 0.22794464 0.62378603 5.6250096e-39
-0.37809908 0.22879294 0.62610739 5.4406212e-39
-0.37524769 0.22860388 0.62559003 5.1643944e-39
-0.37280113 0.22866057 0.62574518 5.2562285e-39
-0.36983359 0.22839628 0.62502193 5.6246495e-39
-0.36711508 0.2282832 0.62471253 5.4409757e-39
-0.3653031 0.22873618 0.62595212 5.3484213e-39
-0.3623133 0.22845286 0.62517679 5.8090393e-39
-0.35962754 0.22835858 0.62491876 5.9008776e-39
-0.35712075 0.22837743 0.62497032 6.0852717e-39
-0.35426262 0.22817023 0.62440336 5.9005217e-39
-0.35268834 0.22879294 0.62610739 5.9923558e-39
-0.34899282 0.22803858 0.62404311 6.3607768e-39
-0.34668875 0.22818905 0.62445486 6.5455268e-39
-0.34367248 0.22786954 0.62358052 6.3611383e-39
-0.34097317 0.22775699 0.62327248 6.0845486e-39
-0.33914158 0.22822671 0.62455791 6.3600551e-39
-0.33591402 0.22775699 0.62327248 7.2830918e-39
-0.33365914 0.22794464 0.62378603 6.1781834e-39
-0.33099112 0.22785078 0.62352914 5.8086834e-39
-0.3132726 0.23158917 0.6337595 6.3607754e-39
-0.30572268 0.22978108 0.62881154 5.7172067e-39
-0.30489263 0.23108621 0.63238311 5.6253684e-39
-0.30157039 0.2305086 0.63080245 5.809761e-39
-0.2993345 0.23075853 0.63148642 6.2696616e-39
-0.29485327 0.22926694 0.62740457 6.0845514e-39
-0.29242811 0.22936198 0.62766463 6.360781e-39
-0.1312999 0.23273863 0.63690507 6.2710993e-39
-0.12784384 0.23116344 0.63259447 6.4536941e-39
-0.11808929 0.22721453 0.62178802 6.8224738e-39
-0.10880832 0.22892545 0.62647009 6.7309956e-39
-0.10668954 0.22983834 0.62896824 6.5469687e-39
-0.071642376 0.23207484 0.63508856 6.270742e-39
-0.068862669 0.23139547 0.63322943 6.4551304e-39
-0.066375971 0.23168613 0.63402486 6.732076e-39
-0.063531421 0.23070081 0.63132846 7.0994222e-39
-0.060903136 0.23045099 0.6306448 6.8228325e-39
-0.058421507 0.23075853 0.63148642 6.8246332e-39
-0.055933252 0.23106691 0.6323303 6.2718196e-39
-0.053317938 0.23085482 0.63174987 6.1789079e-39
-0.050724335 0.23072006 0.63138109 6.5469659e-39
-0.04830689 0.23141481 0.63328236 7.2848897e-39
-0.045667935 0.23106691 0.6323303 6.9150296e-39
-0.033115644 0.23303269 0.6377098 6.4554934e-39
-0.030473577 0.23262122 0.63658375 6.3640166e-39
-0.027766248 0.23158917 0.6337595 7.2848995e-39
-0.025285134 0.23242578 0.63604897 6.7324432e-39
-0.022220219 0.22747609 0.62250376 6.7327977e-39
-0.020132439 0.23254301 0.63636976 7.0072252e-39
-0.017554143 0.23260166 0.63653022 6.9150282e-39
-0.014979584 0.23273863 0.63690507 7.1926955e-39
-0.012397817 0.23279738 0.63706589 7.3763721e-39
-0.009551852 0.22661895 0.62015814 6.915754e-39
-0.0070401141 0.22678614 0.62061566 7.2830974e-39
0.0082970411 0.23309159 0.63787097 7.2845324e-39
0.010882189 0.23301306 0.63765609 6.5466086e-39
0.023548208 0.23033588 0.63032979 7.1001425e-39
0.026060851 0.22993386 0.62922961 7.9284612e-39
0.028498538 0.22900125 0.62667751 7.2834464e-39
0.031080514 0.22928594 0.62745655 6.1781876e-39
0.03380356 0.23048939 0.63074988 8.3901554e-39
0.044544216 0.23311123 0.63792473 7.0090231e-39
0.047328658 0.23407768 0.64056951 7.560392e-39
0.049962245 0.23423623 0.64100337 6.4544102e-39
0.052652933 0.23463355 0.64209062 6.9161128e-39
0.055104651 0.2339787 0.6402986 5.9952383e-39
0.057571854 0.23344563 0.63883984 5.9955984e-39
0.060164601 0.23344563 0.63883984 6.1799827e-39
0.062741466 0.23338655 0.63867813 5.9948795e-39
0.065317027 0.23332749 0.63851655 5.8108498e-39
0.067897014 0.23328815 0.63840884 7.8380593e-39
0.070458308 0.23318984 0.63813984 8.2071949e-39
0.073017441 0.23309159 0.63787097 8.2064873e-39
0.075536251 0.23287576 0.63728034 8.1139357e-39
0.078142397 0.23293459 0.63744134 7.0075881e-39
0.08072947 0.23293459 0.63744134 7.9302619e-39
0.083288498 0.23285617 0.6372267 9.8645695e-39
0.085831352 0.23273863 0.63690507 8.8493343e-39
0.088408805 0.23271905 0.63685149 9.4021494e-39
0.090932295 0.23256256 0.63642323 7.3774497e-39
0.093570292 0.23269948 0.63679796 6.271465e-39
0.096170932 0.23273863 0.63690507 7.0075839e-39
0.09866453 0.23252346 0.63631624 7.5596787e-39
0.101196 0.23240626 0.63599551 7.4682019e-39
0.10372493 0.23228918 0.63567513 6.5469659e-39
0.10616221 0.23197754 0.63482231 6.3618628e-39
0.10875689 0.23201644 0.63492876 7.1912563e-39
0.11138982 0.23213325 0.63524842 8.2975941e-39
0.11392975 0.23205537 0.63503528 7.5607577e-39
0.11661465 0.23226967 0.63562179 7.0072322e-39
0.11903444 0.23195809 0.63476908 4.9792899e-39
0.12116368 0.23110552 0.63243598 4.8881747e-39
0.12358591 0.23083556 0.63169718 5.716492e-39
0.12596048 0.23048939 0.63074988 6.2696602e-39
0.12847759 0.2304126 0.63053977 6.4551304e-39
0.13002951 0.22864166 0.62569344 7.5607549e-39
0.13326275 0.22983834 0.62896824 7.4685579e-39
0.13519768 0.22879294 0.62610739 7.0072238e-39
0.13797837 0.22919096 0.62719667 6.3622173e-39
0.1412729 0.2304126 0.63053977 6.5462541e-39
0.14304566 0.22915299 0.62709278 6.638091e-39
0.14549433 0.22900125 0.62667751 7.2830974e-39
0.14779304 0.22862276 0.62564176 7.7429924e-39
0.14968899 0.22764455 0.62296474 7.3749287e-39
0.15254366 0.22813261 0.62430036 6.8231983e-39
0.15505183 0.228095 0.62419742 7.3763693e-39
0.15817198 0.22894441 0.62652189 7.8369859e-39
0.16157046 0.23016341 0.62985778 7.2838037e-39
0.164414 0.23056622 0.63096017 7.283089e-39
0.16728148 0.23098974 0.63211912 6.9143079e-39
0.16993208 0.23110552 0.63243598 7.5607535e-39
0.17278752 0.23149227 0.63349432 6.6391629e-39
0.17582937 0.23211378 0.63519514 6.0852745e-39
0.17833251 0.23201644 0.63492876 7.5607661e-39
0.18103084 0.23217222 0.63535506 7.1923409e-39
0.18360946 0.23217222 0.63535506 7.6529561e-39
0.18636009 0.23238674 0.6359421 7.3749273e-39
0.18900459 0.23246485 0.63615584 7.562194e-39
0.1912971 0.23211378 0.63519514 7.284175e-39
0.19426623 0.23258211 0.63647676 6.8221193e-39
0.19656846 0.23225018 0.63556838 7.4678502e-39
0.1987142 0.23174436 0.63418418 7.6522345e-39
0.20093459 0.23133741 0.63307053 8.1128483e-39
0.20201738 0.22964756 0.62844616 8.1117693e-39
0.20450005 0.22957133 0.62823755 8.2965235e-39
0.20622835 0.22866057 0.62574518 7.6511569e-39
0.20826875 0.2281138 0.62424892 7.6525974e-39
0.21083705 0.22815143 0.62435186 7.0072252e-39
0.21453869 0.22940001 0.6277687 7.1912549e-39
0.21784519 0.23020171 0.62996262 8.1124938e-39
0.22049363 0.23029752 0.63022482 7.8369873e-39
0.22353522 0.23079704 0.6315918 7.3756504e-39
0.2265332 0.23124073 0.632806 7.3756504e-39
0.2293123 0.23145354 0.63338834 7.8355481e-39
0.23244688 0.23201644 0.63492876 8.2032517e-39
0.23553735 0.23252346 0.63631624 7.6525946e-39
0.23840037 0.23279738 0.63706589 6.4558479e-39
0.24084406 0.23266034 0.63669086 7.1930542e-39
0.24342808 0.23266034 0.63669086 7.5607549e-39
0.24543418 0.23211378 0.63519514 7.837339e-39
0.24776268 0.23188032 0.63455623 7.191971e-39
0.25033805 0.23188032 0.63455623 7.9281011e-39
0.25257468 0.23156978 0.63370645 7.283452e-39
0.25523207 0.23164734 0.6339187 6.9157498e-39
0.25761071 0.23147291 0.63344133 7.2838135e-39
0.25929207 0.23068157 0.63127583 8.1132098e-39
0.2615706 0.2304318 0.63059229 7.1919752e-39
0.26327464 0.22968569 0.62855053 7.2841722e-39
-0.38117081 0.22710812 0.61467004 5.4399009e-39
-0.3804988 0.22820124 0.61762857 5.3477039e-39
-0.38078791 0.22988912 0.62219679 5.7161248e-39
-0.37730148 0.22930492 0.62061566 5.9008762e-39
-0.37644908 0.23032448 0.62337512 5.4409813e-39
-0.37373447 0.23021075 0.62306732 5.3487871e-39
-0.37126684 0.23024864 0.6231699 5.4406212e-39
-0.36855567 0.23013499 0.62286228 5.808682e-39
-0.366088 0.23017286 0.62296474 5.9927117e-39
-0.36415899 0.23055227 0.62399167 6.2692972e-39
-0.36138821 0.23040037 0.62358052 6.7299152e-39
-0.35844406 0.23013499 0.62286228 6.5458855e-39
-0.35612124 0.2302676 0.62322116 5.8086834e-39
-0.35347548 0.2301918 0.623016 5.4399023e-39
-0.35172847 0.2307044 0.62440336 5.6239334e-39
-0.34838977 0.23017286 0.62296474 5.8079631e-39
-0.34628886 0.23045731 0.62373459 6.728839e-39
-0.34333313 0.23017286 0.62296474 6.8217535e-39
-0.34063664 0.23005928 0.62265736 6.1774617e-39
-0.33841574 0.2302676 0.62322116 6.1767443e-39
-0.33503142 0.22968148 0.62163484 6.2685798e-39
-0.33264506 0.22977582 0.62189013 6.08455e-39
-0.33071876 0.2301918 0.623016 6.0849088e-39
-0.31046578 0.23206328 0.6280812 6.0841885e-39
-0.30715224 0.23148715 0.62652189 5.993432e-39
-0.30476081 0.23160215 0.62683314 5.7172067e-39
-0.30209175 0.23150632 0.62657374 5.7175668e-39
-0.29897967 0.23106648 0.62538332 6.2707364e-39
-0.2972272 0.23167887 0.6270408 6.6380783e-39
-0.29358813 0.23081861 0.62471253 5.5313749e-39
-0.29100469 0.23078053 0.62460941 5.6235733e-39
-0.12540244 0.22926734 0.62051398 6.5462499e-39
-0.11982554 0.22823848 0.61772937 6.2707406e-39
-0.11766409 0.22891086 0.61954916 6.3622145e-39
-0.11484889 0.228313 0.61793101 6.4551304e-39
-0.11268128 0.22900456 0.61980277 5.5335385e-39
-0.10808389 0.22992691 0.62229908 6.73136e-39
-0.10580178 0.23045731 0.62373459 6.9157512e-39
-0.09312921 0.23041934 0.62363183 7.1926955e-39
-0.073504642 0.23239103 0.62896824 6.3643781e-39
-0.071241975 0.2333409 0.63153911 5.9959543e-39
-0.068553045 0.23291346 0.63038224 5.9030384e-39
-0.066242829 0.23378946 0.63275307 6.7313586e-39
-0.063510239 0.23318529 0.63111794 7.8366257e-39
-0.060887918 0.23295227 0.63048726 7.2848911e-39
-0.058406893 0.23326308 0.63132846 7.0086657e-39
-0.055886574 0.23343827 0.63180262 6.3622187e-39
-0.053251285 0.233127 0.63096017 6.6388056e-39
-0.050698966 0.23316586 0.63106531 6.4551318e-39
-0.048185971 0.23339932 0.63169718 6.8235542e-39
-0.045557588 0.23306872 0.63080245 6.9153911e-39
-0.043116011 0.23371132 0.63254166 6.6402448e-39
-0.040640503 0.23423973 0.63397175 6.7324418e-39
-0.035485607 0.2341809 0.63381255 7.008307e-39
-0.032918774 0.23422012 0.6339187 6.1789065e-39
-0.030199338 0.23308814 0.63085496 5.9034e-39
-0.027487826 0.23181328 0.62740457 6.5487694e-39
-0.024906401 0.23148715 0.62652189 7.0090315e-39
-0.022286186 0.23068537 0.62435186 6.8242745e-39
-0.019817609 0.23144884 0.62641823 7.3774455e-39
-0.017394733 0.2330493 0.63074988 6.1792652e-39
-0.014759808 0.23187092 0.62756056 6.6398818e-39
-0.012087593 0.22949305 0.62112486 6.8235584e-39
-0.0095455963 0.22898582 0.61975205 6.7313628e-39
-0.0070326198 0.22906083 0.619955 7.2838107e-39
-0.0045205881 0.22926734 0.62051398 7.5603962e-39
-0.0020061627 0.22971921 0.62173694 7.6525932e-39
0.010599199 0.22947422 0.6210739 7.10086e-39
0.033538118 0.23121928 0.62579691 8.4809147e-39
0.049709719 0.2356407 0.6377635 6.6402419e-39
0.052408468 0.236138 0.63910949 6.7317173e-39
0.054928124 0.23581949 0.63824743 7.3770909e-39
0.05745066 0.23554149 0.63749504 6.6388098e-39
0.06002279 0.23548201 0.63733399 6.9164715e-39
0.062635787 0.23558117 0.63760239 7.0075909e-39
0.06519606 0.23548201 0.63733399 7.1923395e-39
0.067759879 0.23540275 0.63711947 6.7302824e-39
0.070321977 0.23532353 0.63690507 7.2838149e-39
0.072937548 0.23542255 0.63717312 7.5604032e-39
0.075447336 0.23518503 0.63653022 7.3760133e-39
0.078089803 0.23536313 0.63701224 7.0997866e-39
0.080627643 0.23522459 0.63663733 7.7447916e-39
0.083141543 0.23502696 0.63610238 9.0326466e-39
0.085514814 0.23445569 0.63455623 8.8500518e-39
0.088149287 0.234613 0.63498205 9.3092335e-39
0.090650342 0.2344164 0.6344499 8.2050453e-39
0.09335044 0.23473112 0.63530171 6.4558507e-39
0.096025527 0.23496772 0.6359421 8.0210128e-39
0.098507218 0.23473112 0.63530171 7.1898186e-39
0.10097545 0.23447534 0.63460946 7.3760105e-39
0.10352501 0.2344164 0.6344499 7.5600431e-39
0.10586926 0.23390675 0.63307053 6.2700245e-39
0.10852934 0.2341025 0.63360035 7.3767252e-39
0.11119389 0.23429859 0.63413107 7.9306122e-39
0.11372942 0.23422012 0.6339187 7.3760119e-39
0.11636066 0.23433784 0.63423729 8.9408195e-39
0.11877552 0.23402417 0.63338834 5.8094121e-39
0.12063964 0.23266163 0.62970066 4.7959846e-39
0.12281734 0.23194782 0.6277687 5.2555138e-39
0.12513688 0.23152548 0.6266256 6.1763841e-39
0.1273533 0.23093295 0.62502193 5.8083247e-39
0.12932411 0.22992691 0.62229908 6.9146694e-39
0.13201249 0.23021075 0.62306732 6.914668e-39
0.13446376 0.23007821 0.62270856 7.0072252e-39
0.13717155 0.23038138 0.62352914 6.5462471e-39
0.13954127 0.23011605 0.62281102 5.9948767e-39
0.14203392 0.23005928 0.62265736 6.3625831e-39
0.14456098 0.23005928 0.62265736 6.7309998e-39
0.14708805 0.23005928 0.62265736 7.0068651e-39
0.1492224 0.2294554 0.62102294 7.4678488e-39
0.15186742 0.22964378 0.6215328 6.5469701e-39
0.15437725 0.22962493 0.62148178 6.7306411e-39
0.15740347 0.23036242 0.62347782 7.7433525e-39
0.16082121 0.2316405 0.62693697 7.9295318e-39
0.16390857 0.23241034 0.62902051 7.0990565e-39
0.16697477 0.233127 0.63096017 7.6533149e-39
0.1698186 0.23351622 0.63201356 6.5476876e-39
0.17252766 0.23371132 0.63254166 7.7458734e-39
0.17559364 0.2343771 0.63434356 6.7310041e-39
0.1780488 0.23422012 0.6339187 6.5466114e-39
0.18060645 0.23420051 0.63386559 7.7444343e-39
0.18319435 0.23422012 0.6339187 7.0072252e-39
0.18573603 0.2341809 0.63381255 7.6518743e-39
0.18835568 0.23423973 0.63397175 7.0994222e-39
0.19033894 0.23351622 0.63201356 7.3763721e-39
0.19301677 0.23365276 0.63238311 6.6391658e-39
0.1940918 0.23187092 0.62756056 6.8235556e-39
0.19668768 0.2319286 0.62771666 7.3763693e-39
0.19910322 0.23177487 0.62730056 7.7447902e-39
0.20113252 0.23118106 0.62569344 7.7440686e-39
0.20372242 0.23123839 0.62584865 7.4671286e-39
0.20590499 0.23083766 0.62476403 7.0979873e-39
0.20808002 0.23043832 0.62368321 7.099781e-39
0.21048988 0.23030552 0.6233238 7.3760077e-39
0.21398865 0.23135313 0.62615919 5.7179283e-39
0.21705052 0.23190936 0.62766463 7.3763707e-39
0.2207693 0.23314643 0.63101274 7.7447902e-39
0.22325584 0.23306872 0.63080245 7.6515142e-39
0.22596659 0.23322418 0.6312232 7.5593256e-39
0.22871913 0.23341879 0.63174987 7.5600388e-39
0.23217429 0.23431821 0.63418418 7.926662e-39
0.23557694 0.23514549 0.63642323 8.2039677e-39
0.23826003 0.23524436 0.63669086 7.5596801e-39
0.24080355 0.23520482 0.63658375 7.3752903e-39
0.24332577 0.23514549 0.63642323 7.1905389e-39
0.24457236 0.23386763 0.63296467 8.0202911e-39
0.2467287 0.23347723 0.63190806 7.4685579e-39
0.24858786 0.23281655 0.63011992 7.3763651e-39
0.25116614 0.23283592 0.63017237 8.0202995e-39
0.2525256 0.23173645 0.62719667 7.1923381e-39
0.25543082 0.23206328 0.6280812 7.0997796e-39
0.25539503 0.22973807 0.62178802 7.7437084e-39
0.2590248 0.23072343 0.62445486 7.6525904e-39
0.26072049 0.22998363 0.62245256 7.560036e-39
-0.37969112 0.22871149 0.61228395 5.1636741e-39
-0.37793973 0.22915627 0.61347467 5.2558698e-39
-0.3778072 0.23059502 0.61732638 5.6242894e-39
-0.37594551 0.23099056 0.61838526 5.7164878e-39
-0.37564489 0.23235704 0.62204343 5.3484255e-39
-0.37272221 0.23210911 0.62137973 5.2565872e-39
-0.3705653 0.23233794 0.62199235 5.4402596e-39
-0.36767843 0.23210911 0.62137973 5.8079617e-39
-0.36518654 0.23212817 0.62143075 6.0845472e-39
-0.36338028 0.23258635 0.62265736 6.1774589e-39
-0.36073455 0.23250987 0.62245256 6.0856234e-39
-0.35767898 0.23216628 0.6215328 6.1774645e-39
-0.3553023 0.23226161 0.62178802 5.5328168e-39
-0.35248926 0.23207101 0.62127775 5.6246523e-39
-0.35086036 0.23266289 0.62286228 5.6246523e-39
-0.34773168 0.23226161 0.62178802 5.7161277e-39
-0.34569079 0.23258635 0.62265736 6.3604167e-39
-0.3426283 0.23222347 0.62168586 6.2689399e-39
-0.34038469 0.23241432 0.62219679 5.9008762e-39
-0.33816519 0.23262462 0.62275982 5.7164906e-39
-0.33489394 0.23210911 0.62137973 5.7161291e-39
-0.33199057 0.23184271 0.62066656 5.9005189e-39
-0.3097719 0.23408803 0.62667751 5.5324567e-39
-0.30715224 0.2340299 0.62652189 5.8090421e-39
-0.30460948 0.2340299 0.62652189 5.5328182e-39
-0.30186689 0.23387508 0.62610739 5.624295e-39
-0.29883155 0.23348889 0.62507355 6.6377196e-39
-0.29671112 0.23381707 0.62595212 6.5458869e-39
-0.29337025 0.23318085 0.62424892 5.0725603e-39
-0.2910527 0.23335403 0.62471253 5.3484269e-39
-0.16308445 0.23165281 0.62015814 6.085992e-39
-0.16048865 0.23153901 0.6198535 5.9945166e-39
-0.15786956 0.23138745 0.61944777 6.1774701e-39
-0.15557191 0.23170975 0.6203106 6.4536983e-39
-0.15284146 0.23138745 0.61944777 6.0859948e-39
-0.15049982 0.23165281 0.62015814 5.7182899e-39
-0.14795865 0.23161486 0.62005657 6.1792666e-39
-0.1453945 0.23153901 0.6198535 6.7309998e-39
-0.14328942 0.23220441 0.62163484 6.2696574e-39
-0.1404321 0.23165281 0.62015814 6.7309956e-39
-0.13739745 0.23078321 0.61783016 7.2845352e-39
-0.13467018 0.23040716 0.61682343 6.2714622e-39
-0.13153452 0.22930491 0.61387259 6.2711049e-39
-0.12913734 0.22947237 0.61432087 6.0867108e-39
-0.12677783 0.22971468 0.61496961 6.0863507e-39
-0.12430215 0.229752 0.61506951 6.5469743e-39
-0.1214015 0.22898927 0.61302757 6.179268e-39
-0.11891351 0.22898927 0.61302757 6.5473289e-39
-0.11679435 0.22971468 0.61496961 6.822478e-39
-0.11377171 0.22865601 0.61213541 6.73136e-39
-0.11153083 0.22915627 0.61347467 5.4409855e-39
-0.10954699 0.23021959 0.61632127 6.2707448e-39
-0.10726394 0.23068908 0.61757815 6.0874297e-39
-0.10528998 0.23186173 0.62071747 7.0997824e-39
-0.10017767 0.23169076 0.62025976 6.3632977e-39
-0.09770035 0.23178571 0.62051398 5.9948753e-39
-0.095111817 0.23161486 0.62005657 6.5476904e-39
-0.092808135 0.23214722 0.62148178 7.0075853e-39
-0.070658453 0.23397182 0.62636644 6.3636593e-39
-0.06816709 0.23414616 0.62683314 6.1796239e-39
-0.065808326 0.23480716 0.62860268 6.5469687e-39
-0.063220382 0.23467077 0.62823755 6.9153911e-39
-0.060570136 0.23428196 0.62719667 6.6406007e-39
-0.058154721 0.23480716 0.62860268 6.9164715e-39
-0.055672858 0.23509996 0.62938654 6.2711063e-39
-0.053052321 0.23480716 0.62860268 6.3636565e-39
-0.050505314 0.23482665 0.6286549 6.9157498e-39
-0.047926046 0.23469025 0.6282897 6.4558507e-39
-0.045319702 0.23439847 0.62750858 6.5469701e-39
-0.042751681 0.23428196 0.62719667 6.4558549e-39
-0.040386859 0.23533472 0.63001502 7.0086685e-39
-0.037833076 0.23535432 0.63006747 6.8242717e-39
-0.035179317 0.23470972 0.62834185 7.9291801e-39
-0.032697015 0.23519772 0.62964827 7.467846e-39
-0.029959681 0.23377842 0.62584865 6.5487708e-39
-0.02732929 0.23300795 0.62378603 6.3647383e-39
-0.024752771 0.23258635 0.62265736 6.7331578e-39
-0.022196492 0.23228069 0.62183911 6.91611e-39
-0.019727834 0.23293118 0.62358052 7.0994194e-39
-0.017223971 0.23329628 0.62455791 6.73136e-39
-0.014627645 0.23231886 0.62194127 6.7317187e-39
-0.012021513 0.23074555 0.61772937 6.5476876e-39
-0.009509787 0.23063265 0.61742705 6.2707406e-39
-0.0070016594 0.23055743 0.61722571 6.7313572e-39
-0.004500669 0.23076437 0.61777973 7.2848883e-39
-0.002000249 0.23155797 0.61990428 7.4685635e-39
0.010577506 0.23152006 0.61980277 6.6398846e-39
0.03339183 0.23273948 0.62306732 7.2827331e-39
0.049220458 0.23588435 0.63148642 6.9171876e-39
0.052210137 0.23782839 0.63669086 7.4692795e-39
0.054775737 0.23774841 0.63647676 7.0997782e-39
0.05734925 0.23770845 0.63636976 6.455136e-39
0.059901763 0.23758863 0.63604897 7.7433567e-39
0.062540986 0.23780839 0.63663733 7.7433567e-39
