# .PCD v0.7 - Point Cloud Data file format
VERSION 0.7
FIELDS x y z rgb
SIZE 4 4 4 4
TYPE F F F F
COUNT 1 1 1 1
WIDTH 1030
HEIGHT 1
VIEWPOINT 0 0 0 1 0 0 0
POINTS 1030
DATA ascii
0.1829567 0.40990087 1.0197859 1.4843851e-38
0.19234844 0.41228884 1.0257269 1.4384315e-38
0.19734019 0.41402775 1.0300531 1.4383953e-38
0.20029441 0.41150832 1.0237851 1.4750938e-38
0.20514297 0.4129042 1.0272579 1.4566904e-38
0.20934054 0.41296023 1.0273973 1.4566548e-38
0.21597214 0.4177219 1.0392438 1.4473629e-38
0.2209786 0.41921809 1.0429661 1.4382517e-38
0.2154752 0.4010945 0.9978767 1.4750582e-38
0.22019263 0.40231413 1.000911 1.4842772e-38
0.22336893 0.4007248 0.99695688 1.5119713e-38
0.22837746 0.40242052 1.0011758 1.4934607e-38
0.23149177 0.40077755 0.99708819 1.4659101e-38
0.23625411 0.40199524 1.0001177 1.447471e-38
0.23958519 0.40077755 0.99708819 1.4659462e-38
0.24382457 0.4010945 0.9978767 1.4843136e-38
0.24777649 0.40093598 0.9974823 1.4751297e-38
0.25255686 0.40210149 1.0003819 1.4934972e-38
0.2576724 0.40375534 1.0044966 1.5119364e-38
0.31631887 0.4279432 1.0646732 1.4290679e-38
0.31122988 0.41538411 1.0334276 1.4014092e-38
0.31581205 0.41589504 1.0346987 1.4289958e-38
0.32009891 0.41600874 1.0349816 1.4106289e-38
0.32367992 0.41521409 1.0330046 1.4198843e-38
0.32876956 0.41635025 1.0358313 1.3921896e-38
0.33434585 0.41806623 1.0401003 1.4197764e-38
0.35293093 0.41510081 1.0327228 1.3828627e-38
0.37025183 0.41572461 1.0342747 1.3460919e-38
0.37120396 0.41212136 1.0253103 1.3645318e-38
0.37440181 0.41106364 1.0226787 1.3460923e-38
0.37850127 0.41100812 1.0225406 1.3737512e-38
0.38311696 0.41150832 1.0237851 1.3921181e-38
0.38659242 0.41078618 1.0219885 1.3828264e-38
0.39201018 0.41212136 1.0253103 1.3920821e-38
0.39542171 0.41134146 1.0233699 1.3920823e-38
0.40120202 0.41301629 1.0275367 1.3828626e-38
0.42938229 0.43747902 1.0883971 1.3829346e-38
0.43434548 0.43361413 1.0787818 1.3553476e-38
0.43537375 0.43030319 1.0705445 1.3737508e-38
0.44178006 0.43232051 1.0755634 1.3645313e-38
0.4423745 0.42866659 1.0664729 1.3461285e-38
0.44872552 0.43060762 1.0713019 1.3276535e-38
0.45410153 0.43158475 1.073733 1.3092501e-38
0.45709792 0.43030319 1.0705445 1.3460562e-38
0.45608988 0.42531154 1.0581259 1.3369085e-38
0.46141613 0.42626476 1.0604974 1.3277251e-38
0.46325436 0.4240078 1.0548824 1.3276535e-38
0.46936679 0.42566848 1.059014 1.3091063e-38
0.4690069 0.42148256 1.0485998 1.3091777e-38
0.47202051 0.4203763 1.0458477 1.3091777e-38
0.47725403 0.42124918 1.0480192 1.2816274e-38
0.48104131 0.4208414 1.0470047 1.272372e-38
0.48428601 0.41997018 1.0448372 1.2999585e-38
0.48524511 0.41714928 1.0378191 1.2908104e-38
0.47080562 0.40125316 0.99827147 1.2723354e-38
0.46313226 0.39134568 0.9736228 1.2630805e-38
0.47292227 0.39623749 0.98579305 1.2631167e-38
0.48410913 0.40220776 1.0006465 1.2538611e-38
-0.65188569 0.42680237 1.0512207 1.3459829e-38
-0.64024144 0.42473826 1.0461366 1.3460907e-38
-0.63258672 0.4224616 1.0405293 1.3276877e-38
-0.61942476 0.41645178 1.0257269 1.3551667e-38
-0.60964525 0.41265011 1.0163634 1.373606e-38
-0.60414153 0.4117105 1.0140492 1.3828257e-38
-0.59178257 0.40605426 1.0001177 1.3644227e-38
-0.58811206 0.40632263 1.0007787 1.3552749e-38
-0.58668715 0.40815705 1.0052968 1.3644945e-38
-0.58712888 0.41132486 1.0130993 1.3829336e-38
-0.58411145 0.41209689 1.0150008 1.3645662e-38
-0.58249104 0.41387245 1.019374 1.4013007e-38
-0.58046407 0.41538253 1.0230933 1.4104847e-38
-0.57724792 0.4160572 1.0247551 1.4012648e-38
-0.57472253 0.41724321 1.0276762 1.4105204e-38
-0.57249445 0.41866395 1.0311755 1.410592e-38
-0.5700953 0.4199796 1.034416 1.4105557e-38
-0.56752551 0.42118809 1.0373925 1.4473264e-38
-0.56501848 0.4224616 1.0405293 1.4289951e-38
-0.56218624 0.42350933 1.0431098 1.1892152e-38
-0.55903107 0.42432782 1.0451257 6.6352057e-39
-0.55671066 0.42579728 1.048745 3.5041458e-39
-0.55460542 0.42745525 1.0528287 7.7469398e-39
-0.55256087 0.42918608 1.0570917 1.4014449e-38
-0.55104047 0.43135428 1.0624321 1.54885e-38
-0.54911739 0.43323901 1.0670741 1.5397022e-38
-0.54655838 0.43464801 1.0705445 1.5396665e-38
-0.54436886 0.43637574 1.0747999 1.5212629e-38
-0.54169863 0.43774292 1.0781673 1.539666e-38
-0.53870374 0.4388679 1.0809381 1.5581052e-38
-0.53546351 0.4398098 1.083258 1.5581413e-38
-0.53190422 0.44050312 1.0849657 1.5949121e-38
-0.52909315 0.44183278 1.0882407 1.5949115e-38
-0.52437502 0.44157889 1.0876154 1.5581769e-38
-0.52547151 0.44625881 1.0991421 1.5490292e-38
-0.51995379 0.44535363 1.0969126 1.5674684e-38
-0.51194167 0.44227779 1.0893368 1.6134224e-38
-0.50847167 0.44310662 1.0913782 1.6318257e-38
-0.50469702 0.44368225 1.092796 1.6317898e-38
-0.51148385 0.45363498 1.1173097 1.6318621e-38
-0.50161916 0.44886547 1.1055623 1.632006e-38
-0.49481994 0.44677773 1.1004201 1.6410454e-38
-0.48992661 0.44638842 1.0994613 1.6594125e-38
-0.46545547 0.43196046 1.063925 1.6595565e-38
-0.4598451 0.4307498 1.0609432 1.7056186e-38
-0.47030208 0.4447093 1.0953256 1.6687762e-38
-0.45308632 0.43668571 1.0755634 1.7240933e-38
-0.44732302 0.43532512 1.0722122 1.733241e-38
-0.4420324 0.43440232 1.0699394 1.7147657e-38
-0.4290199 0.42579728 1.048745 1.6963626e-38
-0.42178378 0.42281029 1.041388 1.7056182e-38
-0.41767216 0.42292663 1.0416746 1.7239856e-38
-0.41316026 0.42263588 1.0409584 1.7332053e-38
-0.40686566 0.42049667 1.0356896 1.7423887e-38
-0.40349025 0.4213613 1.0378191 1.7239854e-38
-0.40087181 0.42304304 1.0419613 1.7332769e-38
-0.39680684 0.42321777 1.0423917 1.7425682e-38
-0.39344299 0.42415217 1.0446931 1.7701554e-38
-0.38818535 0.42304304 1.0419613 1.7516447e-38
-0.38369247 0.42275211 1.0412447 1.7608998e-38
-0.37957096 0.42286843 1.0415313 1.7518242e-38
-0.36979413 0.4213613 1.0378191 1.7424968e-38
-0.38082558 0.43893057 1.0810925 1.7516801e-38
-0.37794909 0.44069257 1.0854324 1.7424607e-38
-0.35357147 0.41712996 1.0273973 1.7332771e-38
-0.34756228 0.41493395 1.0219885 1.7424606e-38
-0.34626579 0.41837904 1.0304737 1.7700831e-38
-0.34050781 0.41645178 1.0257269 1.7239849e-38
-0.33598071 0.4160009 1.0246165 1.7885225e-38
-0.33200201 0.41622624 1.0251714 1.7793389e-38
-0.29034349 0.44145206 1.087303 1.7424964e-38
-0.22137216 0.41946378 1.0331455 1.7149098e-38
-0.21318971 0.41986486 1.0341334 1.696399e-38
-0.20811142 0.41809449 1.029773 1.6964352e-38
-0.20443258 0.41912064 1.0323004 1.6780319e-38
-0.20046163 0.41957831 1.0334276 1.7056547e-38
-0.19884597 0.42509067 1.0470047 1.6872875e-38
-0.18990092 0.42409363 1.044549 1.6780321e-38
-0.055948328 0.43743142 1.0774001 1.5673609e-38
-0.051627103 0.43786761 1.0784745 1.5580694e-38
-0.040892519 0.41764003 1.0286536 1.5856564e-38
-0.036613237 0.41645178 1.0257269 1.5489215e-38
-0.03413849 0.43811727 1.0790893 1.5306265e-38
-0.029661739 0.43668571 1.0755634 1.4937489e-38
-0.0255653 0.44132531 1.0869908 1.5121164e-38
-0.020931335 0.43668571 1.0755634 1.493641e-38
-0.016689425 0.43993568 1.0835682 1.5212633e-38
-0.012270661 0.43918142 1.0817103 1.5027883e-38
-0.0073786885 0.4112148 1.0128282 1.4659824e-38
-0.0033061365 0.4160009 1.0246165 1.5211913e-38
0.00086138886 0.42043915 1.0355479 1.5027521e-38
0.0052929623 0.43943256 1.0823289 1.5028242e-38
0.0097863534 0.44400269 1.0935853 1.511972e-38
0.014082308 0.43955824 1.0826385 1.4843132e-38
0.018303476 0.43544847 1.0725161 1.4751294e-38
0.022785425 0.43793002 1.0786281 1.4751298e-38
0.026936641 0.43427956 1.0696371 1.4751658e-38
0.031115137 0.43202117 1.0640746 1.4935686e-38
0.03526026 0.4299064 1.0588658 1.4844211e-38
0.039233945 0.42638794 1.0501999 1.4660176e-38
0.043262165 0.42409363 1.044549 1.4750572e-38
0.047436047 0.42350933 1.0431098 8.482721e-39
0.051598445 0.42292663 1.0416746 2.1212282e-39
0.055757061 0.42240354 1.0403862 2.3985339e-39
0.059938312 0.42211354 1.0396719 1.1619893e-38
0.064078651 0.42159247 1.0383885 1.4844215e-38
0.068087533 0.42032418 1.0352647 1.4567624e-38
0.072013453 0.41872099 1.031316 1.4567623e-38
0.076105773 0.41820827 1.0300531 1.4935684e-38
0.079432502 0.41376102 1.0190996 1.5027521e-38
0.082954399 0.41072029 1.0116102 1.4751298e-38
0.087704591 0.41376102 1.0190996 1.5027886e-38
0.10982189 0.43588069 1.0735806 1.4935686e-38
0.11468319 0.43780527 1.0783209 1.4660177e-38
0.1185362 0.43588069 1.0735806 1.4659458e-38
0.12804875 0.42409363 1.044549 1.4843852e-38
0.13272756 0.4255026 1.0480192 1.4751294e-38
0.13770534 0.42775267 1.0535612 1.4935684e-38
0.13966835 0.4207845 1.0363984 1.4843129e-38
0.14407182 0.4213613 1.0378191 1.4934612e-38
0.14723432 0.41837904 1.0304737 1.4751299e-38
0.15084165 0.4167906 1.0265615 1.4383236e-38
0.15578957 0.41889217 1.0317377 1.447543e-38
0.15923908 0.41696021 1.0269792 1.447507e-38
0.16226256 0.4140397 1.0197859 1.4567268e-38
0.16640139 0.4140397 1.0197859 1.4843857e-38
0.17010486 0.41298276 1.0171827 1.4751302e-38
0.17524557 0.41538253 1.0230933 1.4935692e-38
0.16802226 0.38904324 0.95821929 1.4842778e-38
0.18192747 0.4117105 1.0140492 1.4842773e-38
0.17573345 0.38889557 0.95785564 1.4475431e-38
0.18035109 0.39047647 0.96174932 1.4383596e-38
0.1920872 0.40707597 1.0026342 1.4751658e-38
0.19615641 0.40707597 1.0026342 1.4842776e-38
0.20220727 0.41110483 1.0125573 1.4751295e-38
0.20623401 0.41093993 1.0121511 1.4843128e-38
0.21192849 0.4140397 1.0197859 1.4750572e-38
0.21313895 0.40842822 1.0059648 1.4566907e-38
0.21613041 0.40637636 1.000911 1.4382513e-38
0.22151044 0.40880844 1.0069013 1.4750218e-38
0.22464094 0.40707597 1.0026342 1.5026807e-38
0.22998939 0.40935287 1.0082422 1.456511e-38
0.23349057 0.40831971 1.0056975 1.4473995e-38
0.23766693 0.40848249 1.0060984 1.4566549e-38
0.24079025 0.40686044 1.0021033 1.4842773e-38
0.2448249 0.40680659 1.0019708 1.4659102e-38
0.24875975 0.40659136 1.0014405 1.4567268e-38
0.25336033 0.40745369 1.0035645 1.5119726e-38
0.25852993 0.4091894 1.0078396 1.5304116e-38
0.26314574 0.4100081 1.0098561 1.5119719e-38
0.26874986 0.41231799 1.0155454 1.4750935e-38
0.27460271 0.41493395 1.0219885 1.4659098e-38
0.30865982 0.41611353 1.0248939 1.4014809e-38
0.31337088 0.41684711 1.0267006 1.4106287e-38
0.31909558 0.41889217 1.0317377 1.4014453e-38
0.32262343 0.41803762 1.0296329 1.4014452e-38
0.32805145 0.41963559 1.0335687 1.4105927e-38
0.33361253 0.4213613 1.0378191 1.4289601e-38
0.33717746 0.42055422 1.0358313 1.4106287e-38
0.34012496 0.41900638 1.0320189 1.3921893e-38
0.34940687 0.4200944 1.0346987 1.3369445e-38
0.35307541 0.41946378 1.0331455 1.3921537e-38
0.35972291 0.42234552 1.0402433 1.3829339e-38
0.36394477 0.42234552 1.0402433 1.3828619e-38
0.36836907 0.42257777 1.0408154 1.4012654e-38
0.37233731 0.42228749 1.0401003 1.392118e-38
0.37353092 0.41889217 1.0317377 1.4013376e-38
0.37689647 0.41798079 1.0294929 1.3644956e-38
0.38024738 0.41707337 1.0272579 1.3645318e-38
0.38609293 0.41889217 1.0317377 1.392082e-38
0.38953707 0.41809449 1.029773 1.3920818e-38
0.39673838 0.42130354 1.0376769 1.3644957e-38
0.39941698 0.41969287 1.0337099 1.3829344e-38
0.40455133 0.42066932 1.0361148 1.3736786e-38
0.42778334 0.44025075 1.0843441 1.3552758e-38
0.40749627 0.41510206 1.0224025 1.3830063e-38
0.41540426 0.41889217 1.0317377 1.3645672e-38
0.42954287 0.42882684 1.0562068 1.3645672e-38
0.43835494 0.43330008 1.0672245 1.3461284e-38
0.44206312 0.43269014 1.0657222 1.3461284e-38
0.45320168 0.43507865 1.0716052 1.3737508e-38
0.45683953 0.43440232 1.0699394 1.3736429e-38
0.45526272 0.42882684 1.0562068 1.3552042e-38
0.46141613 0.43056881 1.0604974 1.3460923e-38
0.46267414 0.42775267 1.0535612 1.3276891e-38
0.46923551 0.42984629 1.0587177 1.3184334e-38
0.47044036 0.42703956 1.0518048 1.3276171e-38
0.47273886 0.4252671 1.0474392 1.3184694e-38
0.47698992 0.4252671 1.0474392 1.3276169e-38
0.47892189 0.42321777 1.0423917 1.2907751e-38
0.48301947 0.42310128 1.0421047 1.3183975e-38
0.47681344 0.4140397 1.0197859 1.3275811e-38
0.47399306 0.40804869 1.0050299 1.2722996e-38
0.47156164 0.4024919 0.99134356 1.2631163e-38
0.47658351 0.40333691 0.99342483 1.2723723e-38
-0.61997586 0.41817853 1.0197859 1.3368714e-38
-0.60499859 0.41081876 1.0018381 1.3552028e-38
-0.60053521 0.41054714 1.0011758 1.3828617e-38
-0.59466326 0.40930223 0.99813986 1.3828614e-38
-0.5899123 0.40881714 0.99695688 1.3553105e-38
-0.58756834 0.41000494 0.99985349 1.3553105e-38
-0.58451396 0.41071007 1.0015731 1.3553105e-38
-0.58114094 0.41119966 1.002767 1.3644943e-38
-0.58029938 0.41349992 1.0083765 1.3829692e-38
-0.57820916 0.41493684 1.0118806 1.4013367e-38
-0.57587266 0.41621628 1.0150008 1.3828614e-38
-0.57375318 0.41767219 1.0185511 1.3829691e-38
-0.57200497 0.41942143 1.0228169 1.410628e-38
-0.57031941 0.42124251 1.0272579 1.392153e-38
-0.568232 0.42279142 1.0310351 1.4289231e-38
-0.56597441 0.42423576 1.0345573 1.3920809e-38
-0.56316084 0.42528182 1.0371083 1.1614849e-38
-0.56002575 0.426099 1.0391011 5.8987238e-39
-0.55695516 0.42697805 1.0412447 3.8725682e-39
-0.55387187 0.42786071 1.0433973 8.3915918e-39
-0.55085188 0.42880628 1.0457032 1.429031e-38
-0.54850185 0.43029207 1.0493265 1.558141e-38
-0.54712474 0.43257034 1.0548824 1.5395944e-38
-0.54573298 0.43487287 1.0604974 1.5395227e-38
-0.54333162 0.4364011 1.0642241 1.5395943e-38
-0.54106593 0.43806368 1.0682787 1.5304465e-38
-0.53893566 0.43986362 1.072668 1.5488859e-38
-0.53640616 0.44136444 1.0763279 1.5488856e-38
-0.53325087 0.44237065 1.0787818 1.5581054e-38
-0.52962726 0.4430019 1.0803212 1.585692e-38
-0.52546769 0.44319162 1.0807838 1.5397016e-38
-0.52332252 0.44509783 1.0854324 1.5582128e-38
-0.51966226 0.44573689 1.0869908 1.5306263e-38
-0.50983393 0.44105092 1.0755634 1.5674325e-38
-0.5019744 0.43800187 1.068128 1.6042389e-38
-0.49806097 0.43837297 1.0690329 1.6410452e-38
-0.49822474 0.44237065 1.0787818 1.622606e-38
-0.49230319 0.44098827 1.0754106 1.5950557e-38
-0.48793861 0.44098827 1.0754106 1.6134591e-38
-0.4880105 0.44503403 1.0852767 1.6502655e-38
-0.45397222 0.425515 1.0376769 1.668704e-38
-0.44932967 0.42510712 1.0366822 1.6871792e-38
-0.47560027 0.45421469 1.1076651 1.6779955e-38
-0.43839362 0.4226763 1.0307543 1.6872509e-38
-0.43581232 0.42423576 1.0345573 1.6964706e-38
-0.43482214 0.4273895 1.0422481 1.7055823e-38
-0.43635899 0.43311346 1.0562068 1.6779952e-38
-0.42884168 0.42987502 1.0483094 1.6872149e-38
-0.4203383 0.42557332 1.0378191 1.724021e-38
-0.41732764 0.42680195 1.0408154 1.7240213e-38
-0.41333076 0.42703676 1.041388 1.7240573e-38
-0.40708843 0.42493257 1.0362566 1.751644e-38
-0.40454391 0.42668462 1.0405293 1.733169e-38
-0.40181193 0.42827389 1.0444049 1.7147657e-38
-0.39762804 0.42833295 1.044549 1.7425324e-38
-0.39447722 0.42951816 1.0474392 1.7424966e-38
-0.38839915 0.42750722 1.0425352 1.7515725e-38
-0.38342881 0.42668462 1.0405293 1.7608639e-38
-0.37884134 0.42627451 1.0395292 1.751824e-38
-0.37400612 0.42557332 1.0378191 1.7148742e-38
-0.36938903 0.42510712 1.0366822 1.7332771e-38
-0.36343983 0.42307949 1.0317377 1.7517523e-38
-0.36028355 0.42429376 1.0346987 1.7148746e-38
-0.35095206 0.41817853 1.0197859 1.6965432e-38
-0.34564927 0.41677505 1.0163634 1.7608639e-38
-0.34467074 0.42061472 1.0257269 1.7516796e-38
-0.34000111 0.41998881 1.0242006 1.7701906e-38
-0.33675548 0.42112824 1.0269792 1.7977421e-38
-0.33458444 0.42365685 1.0331455 1.7700831e-38
-0.23236583 0.42078575 1.026144 1.6964712e-38
-0.2295077 0.42319483 1.0320189 1.6871797e-38
-0.2254729 0.42348346 1.0327228 1.7148743e-38
-0.22113074 0.42319483 1.0320189 1.733313e-38
-0.21789274 0.42504892 1.0365404 1.7332413e-38
-0.21260889 0.42290661 1.031316 1.714838e-38
-0.20799826 0.42204422 1.029213 1.7056189e-38
-0.20451623 0.42348346 1.0327228 1.7148384e-38
-0.20035224 0.42354125 1.0328637 1.7056547e-38
-0.044636738 0.4177846 1.0188253 1.5764723e-38
-0.040496361 0.41772839 1.0186882 1.5948755e-38
-0.036225509 0.41616049 1.0148647 1.5581047e-38
-0.032489911 0.42112824 1.0269792 1.5305902e-38
-0.028123515 0.41817853 1.0197859 1.5213354e-38
-0.023814674 0.4152143 1.0125573 1.4937127e-38
-0.019734217 0.41582605 1.0140492 1.5305191e-38
-0.015673254 0.41727921 1.0175928 1.548886e-38
-0.011437256 0.41344485 1.0082422 1.4936407e-38
-0.0073875836 0.41582605 1.0140492 1.5120438e-38
-0.0032949881 0.41874257 1.0211614 1.5211912e-38
0.00085681828 0.42238876 1.0300531 1.4658738e-38
0.0052636154 0.44136444 1.0763279 1.4843132e-38
0.0096828537 0.44369835 1.0820196 1.4843491e-38
0.013968451 0.44036275 1.0738852 1.5119359e-38
0.018144114 0.43597209 1.0631781 1.4843489e-38
0.022614663 0.43899283 1.0705445 1.4844568e-38
0.026695261 0.43469018 1.0600519 1.4752014e-38
0.03067963 0.43023244 1.0491811 1.5026804e-38
0.034846008 0.4291026 1.0464258 1.5119716e-38
0.038910098 0.42709553 1.0415313 1.493676e-38
0.043001123 0.42574841 1.0382462 1.484385e-38
0.047163129 0.42528182 1.0371083 9.3139278e-39
0.051337097 0.42499074 1.0363984 1.9372012e-39
0.055482585 0.42452583 1.0352647 1.6613332e-39
0.059619013 0.42406192 1.0341334 1.0052565e-38
0.063729018 0.42348346 1.0327228 1.4935328e-38
0.067625165 0.42164299 1.0282345 1.4750936e-38
0.071342885 0.41896859 1.0217127 1.4843851e-38
0.075255945 0.41767219 1.0185511 1.4936042e-38
0.078775071 0.41443831 1.0106649 1.4843489e-38
0.082360141 0.41185424 1.0043633 1.4935689e-38
0.086712457 0.41316974 1.0075713 1.5120079e-38
0.11438993 0.44105092 1.0755634 1.4843847e-38
0.11413399 0.42388824 1.0337099 1.4750575e-38
0.11789471 0.4223313 1.0299131 1.4935323e-38
0.12187568 0.42164299 1.0282345 1.4936042e-38
0.1267027 0.42383036 1.0335687 1.465982e-38
0.13890773 0.4226763 1.0307543 1.4751294e-38
0.14340346 0.42359903 1.0330046 1.4566545e-38
0.14633802 0.41998881 1.0242006 1.4475068e-38
0.14984608 0.41817853 1.0197859 1.4750941e-38
0.1542342 0.41885555 1.0214369 1.4751657e-38
0.16973998 0.41621628 1.0150008 1.4752018e-38
0.17505631 0.41908172 1.0219885 1.4751661e-38
0.16780986 0.39243552 0.95700806 1.4658745e-38
0.17167221 0.3923859 0.95688713 1.4935329e-38
0.17591149 0.39318103 0.95882607 1.4567268e-38
0.18120278 0.39624217 0.96629113 1.447579e-38
0.19282776 0.41273031 1.0064996 1.447543e-38
0.19633843 0.41152668 1.0035645 1.447507e-38
0.20134555 0.41344485 1.0082422 1.4750581e-38
0.20530082 0.41316974 1.0075713 1.4659094e-38
0.20861271 0.41163582 1.0038307 1.4566896e-38
0.21159263 0.40951818 0.99866652 1.4382867e-38
0.21601617 0.41022164 1.0003819 1.4566903e-38
0.22045493 0.4109275 1.0021033 1.4842772e-38
0.2242845 0.41049284 1.0010433 1.4934968e-38
0.22886169 0.4114176 1.0032985 1.4750936e-38
0.23277937 0.41114518 1.0026342 1.4934972e-38
0.23653534 0.41060141 1.0013081 1.4659467e-38
0.24050374 0.41043857 1.000911 1.4935688e-38
0.24440441 0.41016743 1.0002499 1.5027165e-38
0.24846394 0.41016743 1.0002499 1.4660181e-38
0.25285757 0.41071007 1.0015731 1.5027885e-38
0.25798047 0.41240135 1.0056975 1.5118999e-38
0.2627252 0.41344485 1.0082422 1.5027882e-38
0.26903856 0.41688699 1.0166364 1.4843136e-38
0.27613097 0.42141405 1.0276762 1.5211197e-38
0.28140959 0.42307949 1.0317377 1.4658385e-38
0.28575268 0.42331025 1.0323004 1.4659104e-38
0.29149237 0.42557332 1.0378191 1.465983e-38
0.29594779 0.42592365 1.0386734 1.4659109e-38
0.29958788 0.42510712 1.0366822 1.4474718e-38
0.30329689 0.42440975 1.0349816 1.4107371e-38
0.30986962 0.42768389 1.0429661 1.4383236e-38
0.30828422 0.41976169 1.0236467 1.4199562e-38
0.31205899 0.4192515 1.0224025 1.4014455e-38
0.31762391 0.42112824 1.0269792 1.39219e-38
0.32044443 0.41936475 1.0226787 1.4014453e-38
0.32675779 0.42215902 1.0294929 1.410593e-38
0.33201957 0.42354125 1.0328637 1.4014094e-38
0.33584493 0.42307949 1.0317377 1.4290318e-38
0.3392002 0.42204422 1.029213 1.4197405e-38
0.3442196 0.42307949 1.0317377 1.4013011e-38
0.34959799 0.42452583 1.0352647 1.4106287e-38
0.35307541 0.42365685 1.0331455 1.4198483e-38
0.35977235 0.426626 1.0403862 1.3737503e-38
0.36414489 0.42680195 1.0408154 1.3644949e-38
0.36831844 0.42674327 1.0406723 1.3552397e-38
0.37259325 0.42680195 1.0408154 1.4105571e-38
0.37516698 0.42493257 1.0362566 1.410521e-38
0.37890589 0.42440975 1.0349816 1.4013732e-38
0.38174954 0.42290661 1.031316 1.4014094e-38
0.38741282 0.42452583 1.0352647 1.3737503e-38
0.39065292 0.42348346 1.0327228 1.3737146e-38
0.39679277 0.42557332 1.0378191 1.3645313e-38
0.39958066 0.42406192 1.0341334 1.346164e-38
0.40416414 0.42446777 1.0351231 1.3552393e-38
0.40515238 0.42112824 1.0269792 1.3368722e-38
0.40788186 0.4196482 1.0233699 1.3645313e-38
0.41388139 0.42152849 1.0279553 1.3828987e-38
0.42328337 0.42680195 1.0408154 1.3552759e-38
0.4323217 0.43160814 1.0525359 1.3553121e-38
0.44026589 0.43523866 1.0613894 1.3461285e-38
0.44739604 0.43800187 1.068128 1.3645672e-38
0.4526251 0.43886873 1.0702418 1.3737506e-38
0.45645249 0.43837297 1.0690329 1.3737147e-38
0.45311347 0.43106878 1.0512207 1.3736793e-38
0.46303764 0.4364011 1.0642241 1.364424e-38
0.46222389 0.43160814 1.0525359 1.355276e-38
0.46982682 0.43469018 1.0600519 1.3552037e-38
0.46855262 0.42957762 1.0475842 1.3461281e-38
0.4715645 0.42845118 1.0448372 1.3461282e-38
0.47449532 0.42727187 1.0419613 1.3185055e-38
0.47344628 0.42256123 1.0304737 1.2999945e-38
0.47860563 0.4234257 1.0325819 1.2999943e-38
0.47413114 0.41582605 1.0140492 1.3091778e-38
0.47607863 0.41394097 1.0094521 1.2907025e-38
0.47693238 0.41114518 1.0026342 1.2723351e-38
0.47909814 0.40951818 0.99866652 1.2723717e-38
0.48726481 0.41300485 1.0071691 1.2907036e-38
-0.6127131 0.41737008 1.0078396 1.3552385e-38
-0.60228878 0.41302648 0.99735093 1.3552026e-38
-0.5965122 0.41183293 0.99446875 1.3736417e-38
-0.59146613 0.41113088 0.99277353 1.3644939e-38
-0.58952415 0.41259167 0.99630094 1.3552745e-38
-0.58586615 0.41286331 0.99695688 1.3552388e-38
-0.58266395 0.41346222 0.99840313 1.3736419e-38
-0.57975876 0.41428173 1.0003819 1.3736778e-38
-0.5767656 0.41504952 1.002236 1.3828975e-38
-0.57467598 0.41648299 1.0056975 1.3921172e-38
-0.57264823 0.41798213 1.0093175 1.4013723e-38
-0.57045311 0.41937989 1.0126927 1.3922605e-38
-0.56854856 0.42101303 1.0166364 1.3737496e-38
-0.56747055 0.42328662 1.0221264 1.4013008e-38
-0.56599671 0.42529625 1.0269792 1.3645304e-38
-0.56374043 0.42674345 1.0304737 1.0694685e-38
-0.56085598 0.42773315 1.0328637 5.254432e-39
-0.55841625 0.4290795 1.0361148 3.3201147e-39
-0.55519891 0.42984426 1.0379615 8.8514867e-39
-0.55181855 0.43049347 1.0395292 1.428995e-38
-0.54895633 0.43156007 1.0421047 1.5304099e-38
-0.54638147 0.43287092 1.04527 1.5303742e-38
-0.54416776 0.43449059 1.0491811 1.5488136e-38
-0.54208815 0.43624377 1.0534146 1.53963e-38
-0.53961486 0.43770543 1.0569441 1.5304823e-38
-0.53704965 0.43911541 1.0603489 1.5305185e-38
-0.53416765 0.44028705 1.0631781 1.5212631e-38
-0.53224444 0.44227451 1.0679773 1.5488139e-38
-0.52955347 0.44365135 1.0713019 1.5580696e-38
-0.52498269 0.44346309 1.0708474 1.5489216e-38
-0.52367353 0.44604978 1.0770936 1.5672526e-38
-0.5214535 0.4478977 1.0815558 1.5582129e-38
-0.51419914 0.44541612 1.0755634 1.5489935e-38
-0.50545371 0.4415893 1.0663227 1.5766162e-38
-0.49964815 0.44028705 1.0631781 1.5950554e-38
-0.49806097 0.44271165 1.0690329 1.6042389e-38
-0.49879333 0.44725877 1.0800129 1.6042387e-38
-0.49490425 0.44770584 1.0810925 1.604275e-38
-0.48946822 0.44674894 1.0787818 1.6133868e-38
-0.48682413 0.44834605 1.0826385 1.6317901e-38
-0.48618454 0.45183513 1.0910636 1.6134941e-38
-0.45518899 0.42691776 1.0308948 1.631933e-38
-0.43474299 0.4273833 1.0320189 1.6779595e-38
-0.43143669 0.42825899 1.0341334 1.6779592e-38
-0.4275316 0.42855167 1.0348402 1.650373e-38
-0.42367914 0.42890343 1.0356896 1.6595565e-38
-0.41833124 0.42773315 1.0328637 1.6688475e-38
-0.41681194 0.43049347 1.0395292 1.7057258e-38
-0.41298991 0.43090764 1.0405293 1.7148375e-38
-0.40675437 0.4287861 1.0354062 1.7516437e-38
-0.40459949 0.43096688 1.0406723 1.705474e-38
-0.38300771 0.43043438 1.0393864 1.7424966e-38
-0.37775213 0.42925575 1.0365404 1.7149456e-38
-0.3670769 0.42662731 1.0301933 1.7793392e-38
-0.36166552 0.42518091 1.0267006 1.7242016e-38
-0.35566577 0.42300108 1.0214369 1.7334212e-38
-0.35015026 0.42135251 1.0174561 1.7426768e-38
-0.34588143 0.42118269 1.0170461 1.7701191e-38
-0.34341452 0.42322949 1.0219885 1.751644e-38
-0.33890077 0.42277291 1.0208861 1.7977779e-38
-0.33566272 0.42391616 1.0236467 1.7609717e-38
-0.3333562 0.42627928 1.0293529 1.7518239e-38
-0.31750897 0.42744157 1.0321596 1.7149461e-38
-0.23293136 0.41848424 1.01053 1.7241296e-38
-0.22953476 0.41977292 1.0136418 1.6964709e-38
-0.22739984 0.42345813 1.0225406 1.7148382e-38
-0.2229788 0.42294401 1.0212991 1.6964352e-38
-0.2060931 0.42231736 1.0197859 1.696363e-38
-0.052560017 0.41915563 1.0121511 1.5581057e-38
-0.048290774 0.41775936 1.0087795 1.530483e-38
-0.044302873 0.41876373 1.0112048 1.5396663e-38
-0.040231112 0.4190996 1.0120158 1.5765803e-38
-0.03603711 0.41809362 1.0095867 1.5766159e-38
-0.031956721 0.41831675 1.0101255 1.5673969e-38
-0.02783853 0.41803786 1.0094521 1.5582132e-38
-0.023722665 0.41770372 1.0086452 1.5304469e-38
-0.01970255 0.41926771 1.0124218 1.548886e-38
-0.015662728 0.42112613 1.0169095 1.5303746e-38
-0.011484669 0.41926771 1.0124218 1.5212629e-38
-0.0073945164 0.42033571 1.0150008 1.5212629e-38
-0.0032865657 0.42180601 1.0185511 1.5027519e-38
0.00084942195 0.42288697 1.0211614 1.4751292e-38
0.0050586513 0.42837602 1.034416 1.4751654e-38
0.013905335 0.44271165 1.0690329 1.4935684e-38
0.017784478 0.43156007 1.0421047 1.4936044e-38
0.022389878 0.43893099 1.0599035 1.5028601e-38
0.026392242 0.4340094 1.0480192 1.484385e-38
0.030418275 0.43078923 1.0402433 1.4935685e-38
0.034616347 0.43049347 1.0395292 1.5028241e-38
0.038713045 0.42913824 1.0362566 1.4660533e-38
0.04279571 0.42790827 1.0332866 1.447615e-38
0.046893328 0.42703405 1.0311755 1.0604668e-38
0.051022787 0.42656925 1.0300531 2.4900163e-39
0.055083375 0.42564267 1.0278157 1.4762203e-39
0.059134372 0.42477769 1.0257269 8.8507763e-39
0.063126259 0.42362979 1.0229551 1.5302308e-38
0.066790625 0.42056122 1.0155454 1.4842771e-38
0.070496172 0.41809362 1.0095867 1.4936405e-38
0.074474424 0.41742563 1.0079738 1.4844926e-38
0.078304678 0.41604087 1.0046299 1.4475426e-38
0.081452474 0.41134661 0.99329454 1.484421e-38
0.086059622 0.41411754 0.99998558 1.5027881e-38
0.088413119 0.40628275 0.98106658 1.4935325e-38
0.1168929 0.42288697 1.0211614 1.4659098e-38
0.12087428 0.42231736 1.0197859 1.46591e-38
0.14322758 0.42726684 1.0317377 1.4659818e-38
0.14488757 0.4199416 1.0140492 1.4842771e-38
0.14878391 0.4193238 1.0125573 1.4658385e-38
0.16910519 0.41876373 1.0112048 1.5028964e-38
0.1737662 0.4201104 1.0144567 1.4660903e-38
0.16864124 0.39828303 0.96174932 1.447615e-38
0.17340361 0.40026605 0.96653783 1.4567984e-38
0.1768522 0.39919582 0.9639535 1.4842413e-38
0.18145753 0.4007265 0.96764964 1.4843133e-38
0.19120096 0.4132987 0.99800825 1.4475068e-38
0.19525139 0.4132987 0.99800825 1.4475429e-38
0.2003583 0.41548952 1.0032985 1.5026806e-38
0.20478301 0.41620657 1.0050299 1.4843132e-38
0.20797846 0.414446 1.0007787 1.438251e-38
0.21136957 0.41313532 0.99761373 1.4566544e-38
0.21575959 0.41378963 0.99919373 1.4843492e-38
0.22030914 0.41472012 1.0014405 1.511936e-38
0.22395876 0.41395351 0.9995895 1.4843129e-38
0.22837746 0.41461042 1.0011758 1.4843847e-38
0.23250225 0.41472012 1.0014405 1.5396665e-38
0.23619172 0.41406286 0.99985349 1.4291043e-38
0.24015449 0.41389889 0.99945754 1.4844573e-38
0.24395318 0.41346222 0.99840313 1.4935688e-38
0.24780914 0.41313532 0.99761373 1.4843494e-38
0.25215703 0.41362587 0.99879825 1.4935684e-38
0.25661692 0.41428173 1.0003819 1.5026439e-38
0.26126388 0.41521442 1.0026342 1.5395943e-38
0.2659671 0.41620657 1.0050299 1.5396309e-38
0.27108967 0.41781503 1.008914 1.5027888e-38
0.27710462 0.42073053 1.0159543 1.5027526e-38
0.28122789 0.42073053 1.0159543 1.4659462e-38
0.28825226 0.425008 1.0262831 1.456727e-38
0.29449332 0.42802513 1.0335687 1.4659468e-38
0.29832155 0.42749986 1.0323004 1.4475075e-38
0.30321401 0.42849311 1.0346987 1.4291044e-38
0.31102648 0.43352932 1.0468599 1.4382878e-38
0.30449656 0.41870779 1.0110698 1.4382876e-38
0.30992445 0.42050484 1.0154091 1.4198484e-38
0.31775323 0.4254694 1.0273973 1.4105931e-38
0.319538 0.42231736 1.0197859 1.4198127e-38
0.32649142 0.42598969 1.0286536 1.4197768e-38
0.33279139 0.42872748 1.0352647 1.392118e-38
0.33731592 0.42913824 1.0362566 1.3737506e-38
0.3392002 0.42622131 1.029213 1.410557e-38
0.3439852 0.42697591 1.0310351 1.3828984e-38
0.34897763 0.42796668 1.0334276 1.4014453e-38
0.35278657 0.42749986 1.0323004 1.4291037e-38
0.35957471 0.43061173 1.0398147 1.3830059e-38
0.36374485 0.4305526 1.0396719 1.3921176e-38
0.36751017 0.43002114 1.0383885 1.38297e-38
0.37223503 0.43061173 1.0398147 1.4013734e-38
0.37404066 0.42784989 1.0331455 1.4289242e-38
0.37802738 0.42761648 1.0325819 1.4104848e-38
0.38128209 0.42656925 1.0300531 1.38297e-38
0.38741282 0.42872748 1.0352647 1.3921539e-38
0.38974914 0.42668536 1.0303335 1.3645671e-38
0.39468274 0.42749986 1.0323004 1.3369085e-38
0.39719346 0.42570049 1.0279553 1.3737508e-38
0.40163812 0.42598969 1.0286536 1.3736789e-38
0.40064162 0.42056122 1.0155454 1.4013376e-38
0.40432933 0.4201104 1.0144567 1.3829344e-38
0.40998474 0.42169255 1.0182772 1.3921184e-38
0.41959161 0.42726684 1.0317377 1.3736794e-38
0.42435724 0.42784989 1.0331455 1.3829346e-38
0.45645249 0.44271165 1.0690329 1.3369803e-38
0.45017564 0.43251261 1.0444049 1.3369447e-38
0.45954937 0.4374001 1.0562068 1.3553121e-38
0.46075061 0.43449059 1.0491811 1.3644599e-38
0.46910432 0.43831736 1.0584217 1.3736792e-38
0.46597356 0.43144131 1.0418179 1.3369085e-38
0.46628773 0.42784989 1.0331455 1.373715e-38
0.46926406 0.42674345 1.0304737 1.3460203e-38
0.46935767 0.42305815 1.0215747 1.3275812e-38
0.47433582 0.42380157 1.0233699 1.3184334e-38
0.47141603 0.41753682 1.0082422 1.3368365e-38
0.47500196 0.41709247 1.0071691 1.3275449e-38
0.47693238 0.41521442 1.0026342 1.2907743e-38
0.47865617 0.41318977 0.99774522 1.3000301e-38
0.48668212 0.41659367 1.0059648 1.2907753e-38
-0.62330002 0.42309377 1.0117453 1.3368712e-38
-0.61721426 0.42174113 1.0085108 1.3552745e-38
-0.61003321 0.41961706 1.0034316 1.3644219e-38
-0.60125911 0.41636121 0.99564582 1.3644222e-38
-0.59541726 0.41510564 0.99264336 1.3552746e-38
-0.59224278 0.41570517 0.99407703 1.3552389e-38
-0.58813107 0.41565061 0.99394655 1.3459833e-38
-0.58379054 0.41543245 0.99342483 1.3643506e-38
-0.58113122 0.41641599 0.99577677 1.3828254e-38
-0.57792598 0.41701931 0.99721956 1.3828253e-38
-0.57493895 0.41778973 0.99906188 1.3920451e-38
-0.57209218 0.41867372 1.0011758 1.4013006e-38
-0.56953514 0.41978395 1.0038307 1.3921529e-38
-0.56749266 0.42129216 1.0074372 1.3737498e-38
-0.56520903 0.42264193 1.0106649 1.3553108e-38
-0.56328791 0.42428446 1.0145926 1.3369078e-38
-0.56135178 0.42593983 1.0185511 9.9567651e-39
-0.55992985 0.42801279 1.0235083 4.9771221e-39
-0.55834228 0.42998922 1.0282345 4.0576797e-39
-0.5559057 0.43133661 1.0314565 9.3124663e-39
-0.55284929 0.43221989 1.0335687 1.4013727e-38
-0.55030733 0.43352193 1.0366822 1.5119713e-38
-0.54752439 0.43465275 1.0393864 1.5304105e-38
-0.54465193 0.4357295 1.0419613 1.5120432e-38
-0.54206437 0.43705282 1.0451257 1.5029316e-38
-0.53931171 0.43826282 1.0480192 1.5028597e-38
-0.53609723 0.43911383 1.0500542 1.5304825e-38
-0.53250027 0.43966264 1.0513666 1.5028238e-38
-0.52948326 0.44070303 1.0538545 1.5119715e-38
-0.52586496 0.44125584 1.0551764 1.5395943e-38
-0.51984364 0.4397848 1.0516586 1.5765447e-38
-0.52093023 0.44435236 1.0625812 1.5673607e-38
-0.52115262 0.44825295 1.0719086 1.5765081e-38
-0.51849067 0.44971743 1.0754106 1.5857278e-38
-0.50913602 0.44535246 1.0649726 1.5673606e-38
-0.50065863 0.44168675 1.0562068 1.5765444e-38
-0.49136785 0.4372339 1.0455587 1.5765804e-38
-0.48921883 0.43911383 1.0500542 1.5950552e-38
-0.49872217 0.4515776 1.0798589 1.5950553e-38
-0.49681973 0.45384327 1.0852767 1.6226783e-38
-0.45589656 0.42783928 1.0230933 1.6411168e-38
-0.45327565 0.42928958 1.0265615 1.6226778e-38
-0.45051432 0.43063256 1.029773 1.6318975e-38
-0.44584981 0.43016449 1.0286536 1.6411171e-38
-0.44203535 0.43051547 1.0294929 1.6410814e-38
-0.43827429 0.43092564 1.0304737 1.6595568e-38
-0.43539584 0.43221989 1.0335687 1.6779596e-38
-0.43232247 0.43334392 1.0362566 1.7054744e-38
-0.42799962 0.43322533 1.0359731 1.6687402e-38
-0.42425954 0.43370008 1.0371083 1.6595927e-38
-0.41821712 0.43180725 1.0325819 1.6965066e-38
-0.41681194 0.43471244 1.0395292 1.66892e-38
-0.41333076 0.43548977 1.041388 1.7056543e-38
-0.4073672 0.43364069 1.0369663 1.6963627e-38
-0.4044883 0.43507087 1.0403862 1.7239853e-38
-0.36523804 0.42865023 1.0250326 1.7333493e-38
-0.36029741 0.42772368 1.0228169 1.7057262e-38
-0.35380417 0.42491084 1.0160905 1.7610434e-38
-0.34921166 0.42434132 1.0147287 1.7333845e-38
-0.34523216 0.42451203 1.0151368 1.7149093e-38
-0.34193748 0.42553908 1.0175928 1.7884866e-38
-0.33789837 0.42565349 1.0178665 1.7885225e-38
-0.33525476 0.42755041 1.0224025 1.733385e-38
-0.33258748 0.42946428 1.0269792 1.7425687e-38
-0.32895491 0.43016449 1.0286536 1.760936e-38
-0.32460368 0.42993084 1.0280949 1.760972e-38
-0.32222515 0.43233794 1.033851 1.7241296e-38
-0.31837708 0.43281075 1.0349816 1.7517526e-38
-0.23630717 0.42129216 1.0074372 1.7056905e-38
-0.23194069 0.42078823 1.0062321 1.7424607e-38
-0.22794776 0.42095608 1.0066335 1.714838e-38
-0.22457896 0.42230368 1.0098561 1.7055826e-38
-0.22098152 0.42326346 1.0121511 1.6964352e-38
-0.21736769 0.42422763 1.0144567 1.6780315e-38
-0.21316481 0.42405716 1.0140492 1.6963987e-38
-0.20885345 0.42365992 1.0130993 1.6687759e-38
-0.20444083 0.42303723 1.0116102 1.6595564e-38
-0.20033519 0.42303723 1.0116102 1.6871799e-38
-0.19651838 0.42365992 1.0130993 1.6779962e-38
-0.056411441 0.42134824 1.0075713 1.5489576e-38
-0.052169442 0.42011818 1.0046299 1.5397738e-38
-0.048200861 0.42106804 1.0069013 1.5581413e-38
-0.044178955 0.42168495 1.0083765 1.548958e-38
-0.040129192 0.42213476 1.0094521 1.5765807e-38
-0.035926919 0.42090011 1.0064996 1.5857641e-38
-0.031715523 0.41922811 1.0025014 1.5487788e-38
-0.02769452 0.41995102 1.0042301 1.5581057e-38
-0.023596914 0.41956145 1.0032985 1.5489222e-38
-0.019569088 0.4205088 1.005564 1.5488862e-38
-0.015566547 0.42264193 1.0106649 1.5489576e-38
-0.011414454 0.42078823 1.0062321 1.548958e-38
-0.0073491936 0.42185351 1.0087795 1.5212269e-38
-0.0032463842 0.42073232 1.0060984 1.5120434e-38
0.00083700346 0.42078823 1.0062321 1.4660179e-38
0.0050229644 0.42952254 1.0271186 1.4752015e-38
0.017674997 0.43310678 1.0356896 1.5119718e-38
0.022026015 0.43602955 1.0426788 1.5119e-38
0.026207224 0.43519047 1.0406723 1.5120079e-38
0.030268554 0.43286994 1.0351231 1.4935326e-38
0.034455497 0.43269244 1.0346987 1.4751292e-38
0.03850225 0.43098429 1.030614 1.4843845e-38
0.042482615 0.42894062 1.0257269 1.4659823e-38
0.046437934 0.42703137 1.0211614 1.23553e-38
0.050439473 0.42582524 1.0182772 3.7789488e-39
0.054403882 0.42451203 1.0151368 1.6598871e-39
0.058382932 0.42348993 1.0126927 7.3734798e-39
0.06235119 0.4225291 1.0103952 1.5302305e-38
0.066222116 0.42106804 1.0069013 1.4935684e-38
0.070084952 0.41972831 1.0036975 1.5028242e-38
0.074089728 0.41933915 1.002767 1.4843847e-38
0.077932395 0.4181208 0.99985349 1.4752011e-38
0.080637842 0.41122362 0.98336029 1.484385e-38
0.084794037 0.41202638 0.98527992 1.5027522e-38
0.088127621 0.40893963 0.9778986 1.4935326e-38
0.14069664 0.42383006 1.0135062 1.4935689e-38
0.1432566 0.41928363 1.0026342 1.4843133e-38
0.1478152 0.42067641 1.0059648 1.4751299e-38
0.151636 0.41995102 1.0042301 1.4567624e-38
0.16458352 0.42179731 1.0086452 1.4843135e-38
0.17388269 0.42451203 1.0151368 1.4844931e-38
0.16825651 0.40126878 0.95955521 1.4752376e-38
0.17324878 0.40382788 0.96567482 1.4566904e-38
0.17725845 0.40403402 0.96616781 1.521155e-38
0.18145753 0.40465373 0.96764964 1.4566905e-38
0.19132707 0.41762441 0.99866652 1.484457e-38
0.19525139 0.41734916 0.99800825 1.4843492e-38
0.2003583 0.41956145 1.0032985 1.4750575e-38
0.20500071 0.42073232 1.0060984 1.4659098e-38
0.20781364 0.41817603 0.99998558 1.4382155e-38
0.21159263 0.41762441 0.99866652 1.4566188e-38
0.21575959 0.41784489 0.99919373 1.4751299e-38
0.22013442 0.41845238 1.0006465 1.4750939e-38
0.2236045 0.41734916 0.99800825 1.4567267e-38
0.22816625 0.41828653 1.0002499 1.4660543e-38
0.23225647 0.41834179 1.0003819 1.4844929e-38
0.23600471 0.41778973 0.99906188 1.45687e-38
0.24005942 0.41778973 0.99906188 1.4844573e-38
0.24401754 0.41762441 0.99866652 1.5212635e-38
0.24777649 0.41712922 0.9974823 1.5027881e-38
0.25229016 0.41790003 0.99932563 1.4936042e-38
0.25661692 0.41834179 1.0003819 1.5028238e-38
0.261437 0.41956145 1.0032985 1.5212275e-38
0.26692382 0.42179731 1.0086452 1.4843854e-38
0.2721414 0.42354658 1.0128282 1.5120083e-38
0.28168148 0.42553908 1.0175928 1.4843135e-38
0.29261577 0.42946428 1.0269792 1.475238e-38
0.30177051 0.43063256 1.029773 1.429104e-38
0.309955 0.43626991 1.0432535 1.4843133e-38
0.31489021 0.42576799 1.0181402 1.4382513e-38
0.31731543 0.42348993 1.0126927 1.4198847e-38
0.32521001 0.42847621 1.0246165 1.4291044e-38
0.33165759 0.43145415 1.0317377 1.4014096e-38
0.3366248 0.43245605 1.0341334 1.3828989e-38
0.33668286 0.42720425 1.0215747 1.3645671e-38
0.34221426 0.42894062 1.0257269 1.3737872e-38
0.34854943 0.43163064 1.0321596 1.3922262e-38
0.35177928 0.43045694 1.0293529 1.4013733e-38
0.35957471 0.43483186 1.0398147 1.3921897e-38
0.36354515 0.43453345 1.0391011 1.428996e-38
0.36776239 0.43453345 1.0391011 1.428996e-38
0.37243965 0.43507087 1.0403862 1.4105929e-38
0.37241441 0.43016449 1.0286536 1.4013015e-38
0.37658921 0.43016449 1.0286536 1.410557e-38
0.37968072 0.42894062 1.0257269 1.3829705e-38
0.38773093 0.43328461 1.0361148 1.4013736e-38
0.38874394 0.42975575 1.0276762 1.3737509e-38
0.39105693 0.42772368 1.0228169 1.3553838e-38
0.39318952 0.42553908 1.0175928 1.3921903e-38
0.39887419 0.42720425 1.0215747 1.3828984e-38
0.39834398 0.42224735 1.0097214 1.39219e-38
0.4032487 0.42309377 1.0117453 1.3645672e-38
0.40910435 0.42491084 1.0160905 1.3737512e-38
0.41697767 0.42876634 1.0253103 1.3553479e-38
0.41886985 0.42645618 1.0197859 1.3829346e-38
0.44078603 0.43584949 1.0422481 1.3645672e-38
0.45963266 0.45016503 1.076481 1.3553838e-38
0.44727564 0.43393788 1.0376769 1.3553119e-38
0.45019132 0.43269244 1.0346987 1.3553116e-38
0.45695114 0.43513066 1.0405293 1.3645313e-38
0.45198047 0.42645618 1.0197859 1.3644956e-38
0.45120248 0.41806558 0.99972147 1.3460565e-38
0.45798129 0.42056465 1.0056975 1.3459842e-38
0.46304709 0.42146042 1.0078396 1.2907744e-38
0.46540269 0.41989532 1.0040969 1.299994e-38
0.46406177 0.41505122 0.99251324 1.3368724e-38
0.47018564 0.41690949 0.99695688 1.3091419e-38
0.47069877 0.41380352 0.98952955 1.3183612e-38
0.4753983 0.4143993 0.99095428 1.3183975e-38
0.48347011 0.41790003 0.99932563 1.3091781e-38
-0.62039828 0.42521113 1.0070353 1.3460554e-38
-0.61361772 0.42335284 1.0026342 1.3459473e-38
-0.60569823 0.42067868 0.99630094 1.3459112e-38
-0.59608531 0.41678452 0.98707831 1.3459832e-38
-0.5936271 0.41787416 0.98965895 1.3460552e-38
-0.5882265 0.41689324 0.9873358 1.3645302e-38
-0.58414322 0.41683888 0.98720706 1.3552385e-38
-0.58195782 0.41814744 0.9903062 1.3828254e-38
-0.5790748 0.41896951 0.99225307 1.3828616e-38
-0.57602918 0.41968456 0.99394655 1.3736778e-38
-0.57335013 0.42067868 0.99630094 1.3920807e-38
-0.57058305 0.42162192 0.9985348 1.4013001e-38
-0.56787866 0.42262524 1.000911 1.3829691e-38
-0.56538612 0.42380184 1.0036975 1.392117e-38
-0.56295449 0.42504153 1.0066335 1.3184686e-38
-0.55991131 0.42583421 1.0085108 9.4043116e-39
-0.55722857 0.42691469 1.0110698 4.3324757e-39
-0.55557358 0.42880446 1.0155454 4.0580398e-39
-0.5539785 0.43076909 1.0201982 9.7745262e-39
-0.55229396 0.43269318 1.0247551 1.4197757e-38
-0.5503698 0.43445736 1.0289333 1.4935322e-38
-0.54813069 0.43599799 1.0325819 1.5119713e-38
-0.54580098 0.43748972 1.0361148 1.4844567e-38
-0.54315686 0.43875065 1.0391011 1.4936761e-38
-0.54027438 0.43983728 1.0416746 1.5028598e-38
-0.5373776 0.44092929 1.0442607 1.5119716e-38
-0.53372842 0.44141635 1.0454143 1.5304106e-38
-0.53043771 0.44221017 1.0472944 1.5028238e-38
-0.52560562 0.44172135 1.0461366 1.5304106e-38
-0.52157605 0.44190452 1.0465704 1.5580692e-38
-0.51775795 0.44227135 1.0474392 1.5488857e-38
-0.51407588 0.44276139 1.0485998 1.5672887e-38
-0.51294607 0.4454762 1.0550294 1.558105e-38
-0.50838083 0.44522804 1.0544416 1.5764723e-38
-0.50089228 0.44239375 1.0477291 1.5765443e-38
-0.49691513 0.44263878 1.0483094 1.567325e-38
-0.47925574 0.43059501 1.0197859 1.5766523e-38
-0.47788483 0.43310356 1.0257269 1.5766523e-38
-0.50586534 0.46249092 1.0953256 1.6042751e-38
-0.51231551 0.47254062 1.1191266 1.6226783e-38
-0.51041424 0.47499812 1.1249466 1.6226422e-38
-0.43486154 0.43587911 1.0323004 1.7056185e-38
-0.43096575 0.43617648 1.0330046 1.6687401e-38
-0.42799962 0.43742985 1.0359731 1.6687401e-38
-0.42315817 0.43677241 1.034416 1.6687762e-38
-0.4162302 0.43392661 1.0276762 1.6964711e-38
-0.41312483 0.43504864 1.0303335 1.6781037e-38
-0.40961215 0.43576026 1.0320189 1.6688125e-38
-0.40547892 0.43581969 1.0321596 1.7332054e-38
-0.40282762 0.43748972 1.0361148 1.7332411e-38
-0.36750737 0.43059501 1.0197859 1.7517523e-38
-0.36376053 0.43105951 1.0208861 1.7149093e-38
-0.35956874 0.43100139 1.0207484 1.724093e-38
-0.35318795 0.42828742 1.0143209 1.7424966e-38
-0.34837118 0.42742845 1.0122865 1.7333492e-38
-0.34417078 0.42731416 1.0120158 1.71491e-38
-0.3402454 0.42754278 1.0125573 1.7700475e-38
-0.33640587 0.42788613 1.0133705 1.7424968e-38
-0.33229306 0.42788613 1.0133705 1.742497e-38
-0.32840008 0.42817268 1.0140492 1.733241e-38
-0.32493734 0.42903468 1.0160905 1.7424964e-38
-0.32159042 0.43007362 1.0185511 1.7517163e-38
-0.3199966 0.43351468 1.0267006 1.7517163e-38
-0.3161298 0.43392661 1.0276762 1.760972e-38
-0.20147948 0.42095566 0.99695688 1.6872515e-38
-0.18466254 0.41951934 0.99355525 1.6872512e-38
-0.17121726 0.41624182 0.98579305 1.6779596e-38
-0.16499873 0.42078942 0.9965632 1.7148019e-38
-0.16152821 0.42229027 1.0001177 1.6964348e-38
-0.13253742 0.42045736 0.99577677 1.6687764e-38
-0.13438176 0.43971628 1.041388 1.6964709e-38
-0.12424222 0.41973966 0.99407703 1.6412975e-38
-0.12585951 0.43947446 1.0408154 1.6872518e-38
-0.056449004 0.42572078 1.0082422 1.5857641e-38
-0.052148681 0.4240267 1.0042301 1.5581771e-38
-0.048200861 0.4251546 1.0069013 1.5857999e-38
-0.044208396 0.42606121 1.0090485 1.5581417e-38
-0.040145252 0.42640221 1.0098561 1.5673612e-38
-0.035965171 0.42543748 1.0075713 1.5950197e-38
-0.03174495 0.42368951 1.0034316 1.5764735e-38
-0.027668828 0.42363337 1.0032985 1.558178e-38
-0.02360943 0.42385805 1.0038307 1.5581776e-38
-0.019561294 0.42442077 1.0051634 1.576581e-38
-0.01553958 0.42600444 1.008914 1.5305911e-38
-0.011388722 0.42391425 1.0039637 1.5306272e-38
-0.0073355096 0.4251546 1.0069013 1.5213714e-38
-0.0032326374 0.42301673 1.0018381 1.5396666e-38
0.00083235715 0.42251351 1.0006465 1.5120441e-38
0.0049623735 0.42845964 1.0147287 1.5027525e-38
0.013477157 0.43748972 1.0361148 1.5304832e-38
0.017614756 0.43581969 1.0321596 1.548886e-38
0.021863418 0.43701124 1.0349816 1.5211196e-38
0.026071046 0.43713078 1.0352647 1.5395944e-38
0.030095732 0.4345755 1.029213 1.5119357e-38
0.034207717 0.43374997 1.0272579 1.5120072e-38
0.038138825 0.43105951 1.0208861 1.5120432e-38
0.042021465 0.42840222 1.0145926 1.5304828e-38
0.045942198 0.42657289 1.0102603 1.3828977e-38
0.049969018 0.42594767 1.0087795 5.0682387e-39
0.053976871 0.4252677 1.0071691 1.9357523e-39
0.05796425 0.42453352 1.0054303 6.1738562e-39
0.061987191 0.42413923 1.0044966 1.484204e-38
0.065932751 0.42329678 1.0025014 1.4659457e-38
0.069742844 0.42173314 0.99879825 1.4843492e-38
0.073563576 0.42040208 0.99564582 1.475201e-38
0.077309586 0.41880482 0.99186307 1.5027881e-38
0.080179609 0.41285515 0.9777723 1.5028239e-38
0.083941944 0.41184455 0.97537887 1.5303391e-38
0.08782135 0.41147345 0.97450006 1.4935692e-38
0.11489381 0.42380184 1.0036975 1.5211199e-38
0.11860569 0.42251351 1.0006465 1.5118996e-38
0.14024605 0.42657289 1.0102603 1.4750579e-38
0.14369428 0.42464629 1.0056975 1.4750936e-38
0.14824857 0.42600444 1.008914 1.4659104e-38
0.15250586 0.42645907 1.0099908 1.4567983e-38
0.16515559 0.42737129 1.0121511 1.4658388e-38
0.16962628 0.42828742 1.0143209 1.5119719e-38
0.17413954 0.42926511 1.0166364 1.5027882e-38
0.16814995 0.40490657 0.95894754 1.4936402e-38
0.17265418 0.40634769 0.96236062 1.4659462e-38
0.17613456 0.40536866 0.96004194 1.4566905e-38
0.18064941 0.40676132 0.96334022 1.4566907e-38
0.19252063 0.42430812 1.0048965 1.4567624e-38
0.19615641 0.42335284 1.0026342 1.5026804e-38
0.20067742 0.42430812 1.0048965 1.4934966e-38
0.20535548 0.42555076 1.0078396 1.5120075e-38
0.20869572 0.4240267 1.0042301 1.4935332e-38
0.21271499 0.42391425 1.0039637 1.4934975e-38
0.21690466 0.42413923 1.0044966 1.4659102e-38
0.22106943 0.42430812 1.0048965 1.4659818e-38
0.2243735 0.42284885 1.0014405 1.5027523e-38
0.22828689 0.42256936 1.0007787 1.4936408e-38
0.23207249 0.42206725 0.9995895 1.4752013e-38
0.23597357 0.42178881 0.99893004 1.4936042e-38
0.24031311 0.42229027 1.0001177 1.484385e-38
0.24411415 0.42184445 0.99906188 1.5305188e-38
0.24767861 0.42101109 0.99708819 1.5304466e-38
0.25209051 0.42162192 0.9985348 1.4843129e-38
0.2560418 0.42145514 0.99813986 1.5028239e-38
0.26040176 0.42195582 0.99932563 1.4843496e-38
0.26533312 0.42335284 1.0026342 1.493641e-38
0.26861969 0.42212299 0.99972147 1.5212638e-38
0.27991322 0.42697173 1.0112048 1.4566901e-38
0.28554276 0.42926511 1.0166364 1.4842771e-38
0.27236915 0.40362844 0.95592058 1.4751655e-38
0.29716271 0.42817268 1.0140492 1.465946e-38
0.28716245 0.40811148 0.96653783 1.4658021e-38
0.30749127 0.42538089 1.0074372 1.4566181e-38
0.33388957 0.42777163 1.0130993 1.4013013e-38
0.33977446 0.43001577 1.0184141 1.3737866e-38
0.34689417 0.43374997 1.0272579 1.4014818e-38
0.35101569 0.43369114 1.0271186 1.419777e-38
0.35952532 0.43899167 1.0396719 1.3921179e-38
0.36329585 0.43844977 1.0383885 1.4381795e-38
0.36751017 0.43844977 1.0383885 1.4382158e-38
0.37172452 0.43844977 1.0383885 1.3645315e-38
0.36299431 0.42335284 1.0026342 1.3645672e-38
0.37124252 0.42817268 1.0140492 1.4014094e-38
0.37505665 0.42782888 1.0132349 1.3921904e-38
0.3857775 0.43528557 1.0308948 1.4105574e-38
0.38711497 0.43210831 1.0233699 1.373679e-38
0.38461378 0.42475915 1.0059648 1.3830066e-38
0.38689724 0.42279291 1.0013081 1.3830426e-38
0.39106449 0.42290479 1.0015731 1.3553118e-38
0.3938269 0.42151073 0.99827147 1.3553116e-38
0.40041268 0.4241955 1.0046299 1.3645315e-38
0.40540451 0.4251546 1.0069013 1.3460923e-38
0.4116261 0.42737129 1.0121511 1.3277608e-38
0.41100845 0.42251351 1.0006465 1.3369444e-38
0.46272495 0.45759195 1.0837233 1.3738231e-38
0.43217099 0.42335284 1.0026342 1.3646034e-38
0.43745682 0.42453352 1.0054303 1.3552756e-38
0.43781623 0.42095566 0.99695688 1.3829702e-38
0.43902957 0.41825688 0.9905653 1.3921181e-38
0.442182 0.41743761 0.98862505 1.3276892e-38
0.44695309 0.41814744 0.9903062 1.3368731e-38
0.45400092 0.42095566 0.99695688 1.3460565e-38
0.45931727 0.42212299 0.99972147 1.3368724e-38
0.46124294 0.42018104 0.99512231 1.3184331e-38
0.46479294 0.41973966 0.99407703 1.299994e-38
0.47055742 0.42128852 0.99774522 1.2723719e-38
0.4738574 0.42062333 0.99616987 1.2815554e-38
0.47670862 0.41957441 0.9936856 1.2999944e-38
0.48315126 0.42167753 0.99866652 1.3091781e-38
-0.61475456 0.42260888 0.99134356 1.3367638e-38
-0.61041147 0.42238763 0.99082458 1.355167e-38
-0.5955562 0.41484112 0.97312218 1.3459113e-38
-0.59374362 0.41633952 0.97663713 1.3367994e-38
-0.58993214 0.41644695 0.97688913 1.3276158e-38
-0.58453435 0.41542849 0.97450006 1.3368712e-38
-0.58147746 0.41607115 0.97600758 1.3461268e-38
-0.57975852 0.41768655 0.97979695 1.3552745e-38
-0.577501 0.41893354 0.98272204 1.373642e-38
-0.57522988 0.42018798 0.98566473 1.3828616e-38
-0.57339442 0.42178044 0.98940027 1.3736776e-38
-0.57132018 0.42321846 0.99277353 1.3552744e-38
-0.56893224 0.42444292 0.99564582 1.3644943e-38
-0.56653053 0.4256745 0.9985348 1.3737498e-38
-0.56396556 0.42680031 1.0011758 1.309213e-38
-0.56086648 0.4275353 1.0028998 9.0351675e-39
-0.55760866 0.42815918 1.0043633 4.1484446e-39
-0.55500501 0.42929822 1.0070353 4.3342666e-39
-0.55209291 0.43021381 1.0091829 1.0235143e-38
-0.54953539 0.43142146 1.0120158 1.4566538e-38
