# .PCD v0.7 - Point Cloud Data file format
VERSION 0.7
FIELDS x y z rgb
SIZE 4 4 4 4
TYPE F F F F
COUNT 1 1 1 1
WIDTH 1033
HEIGHT 1
VIEWPOINT 0 0 0 1 0 0 0
POINTS 1033
DATA ascii
0.60243058 0.29596734 1.2146463 1.5680586e-39
0.6071654 0.29587242 1.2142568 2.0297584e-39
0.61238813 0.29601485 1.2148412 2.6754908e-39
0.61672485 0.29573011 1.2136728 3.0442761e-39
0.62184995 0.29582497 1.214062 3.0446334e-39
0.62899631 0.29687229 1.2183603 3.2283086e-39
0.62899631 0.29687229 1.2183603 3.1364703e-39
0.62899631 0.29687229 1.2183603 3.2286673e-39
0.62899631 0.29687229 1.2183603 3.3201427e-39
0.62899631 0.29687229 1.2183603 3.2286659e-39
0.62899631 0.29687229 1.2183603 3.320863e-39
-1.0113918 0.40402651 1.6309545 1.004715e-38
-1.0093387 0.4058626 1.6383663 1.0324097e-38
-1.0107826 0.40913856 1.6515905 1.0232983e-38
-1.0087006 0.4110215 1.6591915 1.0417015e-38
-1.0035062 0.41165301 1.6617408 1.0416656e-38
-1.0015985 0.41365045 1.6698039 1.014007e-38
-1.0151972 0.42212269 1.7040042 1.0048594e-38
-1.0483955 0.43891671 1.7717975 1.0140786e-38
-1.0284483 0.43353933 1.7500904 1.0508493e-38
-0.97707671 0.41474813 1.674235 1.0877637e-38
-0.95799434 0.40949589 1.6530329 1.1062387e-38
-0.93777174 0.40367869 1.6295503 1.1338971e-38
-0.91655952 0.3973498 1.6040022 1.1338968e-38
-0.91043538 0.39751825 1.6046822 1.1339325e-38
-0.90411437 0.39760253 1.6050224 1.124713e-38
-0.89912528 0.398278 1.6077491 1.1062739e-38
-0.89354897 0.39870134 1.6094581 1.10631e-38
-0.88796073 0.39912558 1.6111706 1.0971626e-38
-0.88443327 0.40048924 1.6166754 1.1063463e-38
-0.87881023 0.40091729 1.6184033 1.1247858e-38
-0.87617517 0.40272516 1.6257013 1.1524804e-38
-0.8686446 0.40229324 1.6239578 1.1801031e-38
-0.86409253 0.4032447 1.6277984 1.226129e-38
-0.85914856 0.40402651 1.6309545 1.2538597e-38
-0.85179532 0.40367869 1.6295503 1.2723346e-38
-0.84427315 0.4032447 1.6277984 1.3275801e-38
-0.84383535 0.40621424 1.6397858 1.3920451e-38
-0.84045684 0.4078041 1.6462036 1.410556e-38
-0.83814961 0.4099434 1.6548395 1.4382143e-38
-0.83453441 0.41147238 1.6610116 1.4658012e-38
-0.82943088 0.41228646 1.6642978 1.5027514e-38
-0.82467043 0.41328582 1.668332 1.5304102e-38
-0.82097495 0.41483989 1.6746054 1.5304102e-38
-0.81870574 0.41714659 1.683917 1.5303742e-38
-0.8113302 0.41686845 1.6827941 1.5120068e-38
-0.8091768 0.41929156 1.6925756 1.5120066e-38
-0.8053683 0.4208912 1.6990329 1.5304103e-38
-0.79936969 0.42136398 1.7009416 1.5304102e-38
-0.79389328 0.42212269 1.7040042 1.5672523e-38
-0.78750926 0.4224079 1.7051556 1.5580687e-38
-0.78288108 0.42364833 1.7101628 1.5672524e-38
-0.77681768 0.42412734 1.7120965 1.5765077e-38
-0.77143919 0.42499232 1.7155882 1.6041304e-38
-0.77006036 0.42809659 1.7281194 1.6317895e-38
-0.76426792 0.42878169 1.7308849 1.6133507e-38
-0.7654683 0.43343914 1.7496859 1.5949833e-38
-0.75959599 0.43414146 1.752521 1.604202e-38
-0.74763751 0.4313457 1.7412353 1.6134217e-38
-0.74382102 0.43323889 1.7488775 1.6041665e-38
-0.73859996 0.43434253 1.7533327 1.6041305e-38
-0.72912002 0.43293884 1.7476664 1.6041304e-38
-0.71542114 0.42897785 1.7316767 1.5395936e-38
-0.70054168 0.42422327 1.7124838 1.5211185e-38
-0.68629545 0.41976076 1.6944697 1.5395573e-38
-0.62269568 0.38471612 1.5530032 1.5488129e-38
-0.60170496 0.37554887 1.5159974 1.5763638e-38
-0.59806716 0.37713474 1.5223991 1.6133138e-38
-0.59680885 0.38026989 1.5350549 1.604094e-38
-0.5934667 0.3821294 1.5425613 1.6225332e-38
-0.58972949 0.38377145 1.5491898 1.6501204e-38
-0.58716667 0.38622141 1.5590796 1.6501923e-38
-0.58578497 0.3895101 1.5723553 1.6410449e-38
-0.58364606 0.39236215 1.5838684 1.6135302e-38
-0.58074117 0.39475712 1.5935363 1.5213701e-38
-0.57621431 0.39609104 1.5989209 9.7730857e-39
-0.57141453 0.39726564 1.6036625 7.560392e-39
-0.5653851 0.39760253 1.6050224 1.5396656e-38
-0.56029648 0.39861661 1.609116 1.7700824e-38
-0.55636734 0.40048924 1.6166754 1.7792662e-38
-0.5531131 0.40289819 1.6263998 1.7608271e-38
-0.55005723 0.40551159 1.6369493 1.7700824e-38
-0.54719967 0.40833685 1.6483542 1.7332762e-38
-0.54311126 0.41030213 1.6562877 1.7515714e-38
-0.53874642 0.41210526 1.6635665 1.7699748e-38
-0.53481513 0.41429007 1.6723858 1.7423877e-38
-0.53237897 0.41770405 1.6861672 1.7147653e-38
-0.5272972 0.41910416 1.6918192 1.7516078e-38
-0.51513565 0.41483989 1.6746054 1.7332047e-38
-0.5067699 0.41355923 1.6694356 1.7700111e-38
-0.49638242 0.4105716 1.6573753 1.742424e-38
-0.4791663 0.40177616 1.6218704 1.7240567e-38
-0.44656307 0.37965408 1.5325689 1.7517149e-38
-0.44722348 0.38558617 1.5565153 1.7424956e-38
-0.42805755 0.37434953 1.5111558 1.7607916e-38
-0.42100012 0.3735294 1.5078452 1.7515361e-38
-0.41397357 0.37271285 1.504549 1.7423882e-38
-0.41245747 0.37690738 1.5214813 1.7608993e-38
-0.41207942 0.38228518 1.5431901 1.7609354e-38
-0.445499 0.41966683 1.6940906 1.7517156e-38
-0.451765 0.4322404 1.7448469 1.7516438e-38
-0.45081347 0.43819886 1.7688997 1.7608634e-38
-0.44613606 0.44066989 1.7788748 1.7425323e-38
-0.41109779 0.41274011 1.6661291 1.7424963e-38
-0.41011199 0.41863641 1.689931 1.733205e-38
-0.43095779 0.44739768 1.8060331 1.7332053e-38
-0.37245142 0.39334965 1.5878546 1.7424606e-38
-0.365394 0.39269078 1.5851949 1.7424964e-38
-0.35858506 0.3922801 1.5835371 1.7424245e-38
-0.35076427 0.39072731 1.577269 1.7515724e-38
-0.34667403 0.39334965 1.5878546 1.769975e-38
-0.33824337 0.3910532 1.5785844 1.7332047e-38
-0.33343568 0.3929376 1.5861913 1.733169e-38
-0.32434785 0.38975292 1.5733355 1.7148021e-38
-0.31638443 0.38781866 1.5655274 1.724058e-38
-0.31060877 0.38854176 1.5684464 1.7055831e-38
-0.30519158 0.38975292 1.5733355 1.6687402e-38
-0.29775423 0.38838086 1.5677968 1.7055104e-38
-0.29407075 0.39195216 1.5822133 1.6963627e-38
-0.28958592 0.394591 1.5928657 1.7240214e-38
-0.28491959 0.39709741 1.6029835 1.714802e-38
-0.27671477 0.39467406 1.5932009 1.6871077e-38
-0.27283236 0.39844722 1.6084323 1.6779598e-38
-0.26835695 0.40151811 1.6208286 1.6964711e-38
-0.26392588 0.40481138 1.6341227 1.7148382e-38
-0.2675139 0.4208912 1.6990329 1.7332764e-38
-0.26138088 0.42212269 1.7040042 1.7425324e-38
-0.25275847 0.41929156 1.6925756 1.714874e-38
-0.24655055 0.42041942 1.6971287 1.714802e-38
-0.21196181 0.37182614 1.5009696 1.724022e-38
-0.2335602 0.42183787 1.7028544 1.7240936e-38
-0.22675113 0.42202771 1.7036208 1.733313e-38
-0.21919574 0.42079675 1.6986518 1.7424973e-38
-0.19832923 0.39310232 1.5868561 1.7332778e-38
-0.19021443 0.38967195 1.5730087 1.7425331e-38
-0.18390676 0.38983396 1.5736626 1.7333134e-38
-0.17829828 0.39154303 1.5805618 1.7609718e-38
-0.17031901 0.38797912 1.5661752 1.7333497e-38
-0.16379324 0.38757825 1.5645568 1.7517889e-38
-0.15750854 0.3877385 1.5652038 1.7424973e-38
-0.15059569 0.38630095 1.5594008 1.705655e-38
-0.14391112 0.3853485 1.5555559 1.2817726e-38
-0.1375131 0.38511112 1.5545977 6.180361e-39
-0.13109605 0.38479507 1.5533218 5.0729303e-39
-0.12443443 0.38369295 1.5488729 3.3208504e-39
-0.11807583 0.3834576 1.5479228 2.4907295e-39
-0.11138362 0.38205156 1.5422471 3.320493e-39
-0.10368808 0.37683165 1.5211755 3.0439075e-39
-0.097338326 0.37615144 1.5184298 2.8595163e-39
-0.08223629 0.33927119 1.3695533 2.7669633e-39
-0.075990602 0.33623004 1.3572769 3.5052444e-39
-0.070343338 0.33556828 1.3546056 3.4130488e-39
-0.064868845 0.33568841 1.3550905 3.5052514e-39
-0.059136316 0.33437175 1.3497756 3.5048871e-39
-0.05322174 0.33165184 1.3387959 3.3204902e-39
-0.047644973 0.33065781 1.3347833 3.5974372e-39
-0.042138569 0.32995972 1.3319653 3.5970813e-39
-0.036752153 0.33013397 1.3326687 3.5974428e-39
-0.031233525 0.32897583 1.3279935 3.7814754e-39
-0.025730994 0.32753947 1.3221954 4.4272035e-39
-0.020251652 0.32571918 1.3148474 4.3350107e-39
-0.014871404 0.32476038 1.3109767 4.3360911e-39
-0.0095161656 0.32358369 1.3062268 4.704868e-39
-0.0041952673 0.32208329 1.3001702 5.8104981e-39
0.0010785433 0.32120073 1.2966074 4.8892621e-39
0.0063550067 0.32191744 1.2995007 4.8899865e-39
0.011534036 0.31928688 1.2888817 5.2587691e-39
0.016810786 0.32015896 1.292402 5.6275516e-39
0.022007195 0.31945002 1.2895403 5.1665748e-39
0.027259398 0.31966782 1.2904195 5.1665762e-39
0.032408219 0.31879842 1.2869098 4.9825353e-39
0.037940737 0.32142094 1.2974963 5.4427974e-39
0.043221474 0.32153115 1.2979412 5.0736575e-39
0.048497517 0.32158628 1.2981638 4.7977867e-39
0.05386775 0.32219398 1.3006169 4.2438941e-39
0.059126023 0.32208329 1.3001702 3.5059689e-39
0.064380683 0.32197273 1.2997237 3.4130544e-39
0.069835484 0.32280397 1.3030794 3.3212189e-39
0.07508529 0.32263738 1.3024068 3.5978086e-39
0.080523521 0.32324907 1.3048761 3.5059717e-39
0.085848987 0.32336053 1.305326 3.6900028e-39
0.091414623 0.32431111 1.3091632 3.6903657e-39
0.096261814 0.32274842 1.302855 3.8743969e-39
0.10139246 0.32224932 1.3008404 3.7825572e-39
0.13285089 0.34944868 1.4106374 4.2428165e-39
0.1422601 0.34450608 1.3906853 3.9676701e-39
0.14804021 0.34482279 1.3919637 3.9673128e-39
0.15368952 0.34482279 1.3919637 4.0591483e-39
0.15860981 0.34324509 1.385595 4.0595028e-39
0.16441382 0.34362242 1.3871181 4.0591469e-39
0.16970146 0.34293127 1.3843281 4.0591469e-39
0.17515965 0.34261802 1.3830637 4.1513439e-39
0.18073983 0.34255546 1.3828111 4.1513411e-39
0.18624996 0.34236786 1.3820539 4.1513411e-39
0.19008933 0.33920982 1.3693056 4.2438955e-39
0.19685724 0.34130865 1.3777782 3.968026e-39
0.2051747 0.34590393 1.3963281 4.1516998e-39
0.2088007 0.34255546 1.3828111 4.2431766e-39
0.21132503 0.33762217 1.3628967 4.1513425e-39
0.2197441 0.34211805 1.3810453 4.0587853e-39
0.2222677 0.33743992 1.362161 3.966947e-39
0.224803 0.33300623 1.3442633 3.8747528e-39
0.23273818 0.33659208 1.3587384 3.8747542e-39
0.236386 0.33395496 1.348093 3.8747556e-39
0.239723 0.33100796 1.3361968 3.7822012e-39
0.24445567 0.33007586 1.3324342 3.8747556e-39
0.24981943 0.33001781 1.3321997 3.7821998e-39
0.25518128 0.32995972 1.3319653 3.8736766e-39
0.26077062 0.33019209 1.3329033 3.7821998e-39
0.26721522 0.33147597 1.338086 3.5978086e-39
0.27561736 0.33508864 1.3526695 3.6900042e-39
0.30800378 0.36011735 1.4537041 3.3208588e-39
0.32572433 0.37367824 1.5084461 3.3205e-39
0.34617627 0.38275328 1.5450797 2.8591617e-39
0.35461813 0.38511112 1.5545977 2.5825735e-39
0.36286479 0.38717818 1.5629419 2.3981836e-39
0.36844739 0.38638052 1.5597221 2.3978221e-39
0.37679583 0.38846129 1.5681216 2.2134294e-39
0.37938821 0.38463724 1.5526848 2.0290367e-39
0.38317513 0.3821294 1.5425613 1.8442839e-39
0.38959444 0.38228518 1.5431901 3.8740269e-39
0.39545447 0.38189596 1.5416189 6.2725566e-39
0.40048793 0.38073307 1.5369246 5.1665734e-39
0.4089672 0.38283142 1.5453951 1.1433344e-38
0.41195968 0.37980783 1.5331897 1.6686682e-38
0.4175902 0.3792702 1.5310193 1.6410096e-38
0.42294857 0.37850475 1.5279295 1.5857643e-38
0.42845798 0.37789464 1.5254666 1.512008e-38
0.43316537 0.37660465 1.5202591 1.161594e-38
0.43915901 0.37645346 1.5196489 3.4094587e-39
0.44479087 0.37600061 1.517821 2.3978207e-39
0.45077023 0.37584993 1.5172126 1.9368397e-39
0.4573862 0.3762269 1.5187343 1.3836673e-39
0.46429512 0.37683165 1.5211755 1.475863e-39
0.46569678 0.37300938 1.505746 1.6598927e-39
0.47426033 0.37494823 1.5135727 1.6598927e-39
0.47868064 0.37360382 1.5081456 1.9368383e-39
0.46928334 0.36164501 1.4598709 2.0290339e-39
0.44775257 0.34075058 1.3755252 2.0293955e-39
0.45515445 0.34211805 1.3810453 2.0297556e-39
0.45709074 0.33939397 1.370049 2.2137895e-39
0.46181539 0.33878091 1.3675742 2.3059838e-39
0.43631309 0.31627169 1.27671 2.2137895e-39
0.44822177 0.32109076 1.2961634 2.3059838e-39
0.44856733 0.31761068 1.2821153 2.3978193e-39
0.45539033 0.31874424 1.2866912 2.4903764e-39
0.45959696 0.31804156 1.2838546 2.3981822e-39
0.46599287 0.31885263 1.2871287 2.8591603e-39
0.47073653 0.3185277 1.285817 3.0439103e-39
0.47579342 0.31841955 1.2853805 2.5829308e-39
0.48141885 0.31869009 1.2864726 2.4903778e-39
0.48680547 0.31879842 1.2869098 2.5825763e-39
0.48944932 0.31712735 1.2801641 2.6747705e-39
0.49716687 0.31874424 1.2866912 2.4900191e-39
0.49866003 0.31637838 1.2771409 2.4903778e-39
0.50995106 0.32021362 1.2926227 2.5825749e-39
0.51248467 0.3185277 1.285817 2.6747705e-39
0.52339226 0.32202801 1.2999469 2.6751278e-39
0.5672707 0.30318317 1.223875 2.7673262e-39
0.57822001 0.30635267 1.2366695 2.8591575e-39
0.57322037 0.30109024 1.2154263 2.7666032e-39
0.58113867 0.302645 1.2217026 2.6744103e-39
0.58913916 0.30421591 1.2280439 2.4903792e-39
0.58991295 0.3020601 1.2193414 2.3981836e-39
0.5947659 0.30201146 1.2191451 2.2130707e-39
0.59894228 0.3016229 1.2175765 1.843928e-39
0.60310787 0.30123532 1.216012 1.5684173e-39
0.60804307 0.30123532 1.216012 2.0301157e-39
0.61307681 0.30128372 1.2162074 2.5836539e-39
0.61741769 0.30099359 1.2150363 3.0446334e-39
0.62234896 0.30099359 1.2150363 2.9524392e-39
0.62930012 0.30196282 1.2189487 3.2286659e-39
0.62930012 0.30196282 1.2189487 3.2283086e-39
0.62930012 0.30196282 1.2189487 3.2286687e-39
0.62930012 0.30196282 1.2189487 3.2283072e-39
0.62930012 0.30196282 1.2189487 3.1364717e-39
0.62930012 0.30196282 1.2189487 3.1364731e-39
-1.0105211 0.41029224 1.6295503 9.1262729e-39
-1.0073767 0.41171011 1.6351815 9.4032228e-39
-1.0085824 0.41493639 1.6479954 9.5872567e-39
-1.0058349 0.41656858 1.6544778 9.3110285e-39
-1.0017471 0.41766384 1.6588279 9.4950597e-39
-1.0000545 0.4197793 1.6672299 9.3106712e-39
-1.0124626 0.42788279 1.6994144 9.3110285e-39
-1.0466809 0.44537798 1.7688997 9.5872553e-39
-1.0164651 0.43550783 1.7296987 9.7716452e-39
-0.9563508 0.41260126 1.638721 9.8634821e-39
-0.94519907 0.41064578 1.6309545 1.0047872e-38
-0.92778695 0.40592372 1.6121999 1.0508851e-38
-0.9115383 0.40164724 1.5952151 1.1061667e-38
-0.90640098 0.40224051 1.5975714 1.1338971e-38
-0.9025836 0.40343234 1.6023049 1.1707753e-38
-0.8981716 0.40437374 1.6060438 1.1985059e-38
-0.89203191 0.40454537 1.6067256 1.226165e-38
-0.88588697 0.40471715 1.6074078 1.2538237e-38
-0.88311321 0.40644303 1.6142625 1.290666e-38
-0.87843466 0.4073115 1.6177117 1.3275802e-38
-0.87617517 0.40932313 1.6257013 1.3644942e-38
-0.86808598 0.40862116 1.6229134 1.3921169e-38
-0.8631646 0.40941104 1.6260505 1.4196678e-38
-0.85840887 0.41029224 1.6295503 1.4289235e-38
-0.85069668 0.40976307 1.6274486 1.4473628e-38
-0.84264255 0.40905961 1.6246547 1.4474347e-38
-0.84128433 0.41162118 1.6348284 1.4566538e-38
-0.83881533 0.41367573 1.6429884 1.4750928e-38
-0.83650398 0.41584158 1.6515905 1.5118633e-38
-0.83125168 0.41656858 1.6544778 1.5026435e-38
-0.82598096 0.41729811 1.6573753 1.4934596e-38
-0.81943387 0.41738948 1.6577383 1.5211543e-38
-0.81646013 0.4193176 1.6653961 1.5304458e-38
-0.81417853 0.42163631 1.6746054 1.5395937e-38
-0.8066684 0.42126361 1.673125 1.5211546e-38
-0.80396444 0.42341575 1.6816728 1.5211186e-38
-0.80212808 0.42606565 1.6921973 1.5396299e-38
-0.79632825 0.42663783 1.6944697 1.5488853e-38
-0.79193258 0.42797884 1.6997958 1.5673243e-38
-0.78556305 0.4282673 1.7009416 1.5765797e-38
-0.78111666 0.4296186 1.7063085 1.5949471e-38
-0.77245063 0.42865252 1.7024715 1.6040944e-38
-0.76605785 0.42894191 1.7036208 1.5949104e-38
-0.76257563 0.43088105 1.7113225 1.6041663e-38
-0.75992453 0.43332979 1.7210481 1.5857274e-38
-0.76902282 0.44258597 1.7578107 1.6225339e-38
-0.76490784 0.44433981 1.7647763 1.5949108e-38
-0.75248331 0.44125411 1.752521 1.6133498e-38
-0.74606144 0.44166306 1.7541453 1.6041663e-38
-0.73553383 0.43962586 1.7460542 1.6040945e-38
-0.72030741 0.43471327 1.7265429 1.5856915e-38
-0.70541751 0.42990929 1.7074629 1.5304102e-38
-0.69317245 0.42663783 1.6944697 1.5120062e-38
-0.6111955 0.37995172 1.5090474 1.5119341e-38
-0.60386735 0.3791959 1.5060455 1.5394854e-38
-0.59739852 0.37896973 1.5051472 1.5487411e-38
-0.59305841 0.38010323 1.5096492 1.5764717e-38
-0.58928156 0.38162518 1.5156939 1.5856913e-38
-0.58677167 0.38400841 1.5251594 1.6041301e-38
-0.58340245 0.38587403 1.5325689 1.6133498e-38
-0.58070904 0.38823172 1.5419329 1.6133142e-38
-0.58000302 0.39198393 1.5568354 1.6318252e-38
-0.57868242 0.39539883 1.5703984 1.4476492e-38
-0.57613307 0.39804089 1.5808918 8.3919421e-39
-0.57342893 0.40063426 1.5911919 8.4830629e-39
-0.5680455 0.4013935 1.5942074 1.6317898e-38
-0.56287915 0.40232539 1.5979086 1.7609706e-38
-0.55816108 0.40360317 1.6029835 1.7701901e-38
-0.55400133 0.40531954 1.6098003 1.760899e-38
-0.55015844 0.4073115 1.6177117 1.7608632e-38
-0.54627758 0.40932313 1.6257013 1.7516437e-38
-0.54235828 0.41135472 1.6337701 1.7055099e-38
-0.53758371 0.41277993 1.6394306 1.7423521e-38
-0.53139031 0.41313779 1.640852 1.7332044e-38
-0.52701527 0.41493639 1.6479954 1.7240209e-38
-0.52294499 0.41702422 1.6562877 1.7240211e-38
-0.5172413 0.41784695 1.6595552 1.6963985e-38
-0.50750232 0.41538849 1.649791 1.7332408e-38
-0.49733859 0.41251197 1.6383663 1.7516082e-38
-0.48585278 0.40844607 1.6222179 1.7332407e-38
-0.47641072 0.40601018 1.6125433 1.74246e-38
-0.44129258 0.38131982 1.5144811 1.7608988e-38
-0.43514603 0.38131982 1.5144811 1.7148375e-38
-0.42780137 0.38025489 1.5102515 1.7331688e-38
-0.42091629 0.37957343 1.507545 1.7424244e-38
-0.41380909 0.37866861 1.5039513 1.7332043e-38
-0.41403839 0.38455069 1.527313 1.7609348e-38
-0.40849903 0.38517231 1.5297819 1.7609709e-38
-0.45269099 0.43342832 1.7214395 1.7700829e-38
-0.45767182 0.44506603 1.7676607 1.7424604e-38
-0.45282367 0.44736394 1.7767873 1.7424604e-38
-0.44834831 0.45011047 1.7876955 1.7516441e-38
-0.44381762 0.4528909 1.7987386 1.7516798e-38
-0.43507028 0.45138949 1.7927755 1.7424244e-38
-0.42993221 0.45364535 1.801735 1.7239853e-38
-0.43092659 0.46256194 1.8371489 1.7700472e-38
-0.42275238 0.46177757 1.8340336 1.7609355e-38
-0.35458016 0.39425394 1.5658512 1.7517156e-38
-0.34686208 0.39271072 1.5597221 1.7332763e-38
-0.34436288 0.3971287 1.577269 1.7700472e-38
-0.33648935 0.39539883 1.5703984 1.7424604e-38
-0.33121508 0.39671546 1.5756277 1.7240214e-38
-0.31995937 0.39077854 1.5520481 1.7240217e-38
-0.31225207 0.38902402 1.5450797 1.742461e-38
-0.30692089 0.39021859 1.5498241 1.7332057e-38
-0.30192885 0.39190331 1.5565153 1.7240937e-38
-0.29561168 0.39190331 1.5565153 1.7516442e-38
-0.2931518 0.3971287 1.577269 1.7332054e-38
-0.28855386 0.39962637 1.5871888 1.7056542e-38
-0.28347909 0.40156263 1.594879 1.6964343e-38
-0.27354869 0.39655039 1.574972 1.7056186e-38
-0.26860949 0.39870691 1.5835371 1.7239861e-38
-0.26350543 0.40071848 1.5915264 1.7056546e-38
-0.25623819 0.39945889 1.5865237 1.7425326e-38
-0.26614019 0.42559004 1.6903083 1.733169e-38
-0.25928006 0.42559004 1.6903083 1.7333127e-38
-0.24199243 0.40800893 1.6204817 1.7241655e-38
-0.24555972 0.42559004 1.6903083 1.7241659e-38
-0.21293275 0.37964901 1.5078452 1.7517528e-38
-0.23261844 0.4270201 1.6959881 1.7609005e-38
-0.22588703 0.42730728 1.6971287 1.7333493e-38
-0.20481245 0.39962637 1.5871888 1.7517165e-38
-0.19820459 0.39929155 1.5858589 1.7610079e-38
-0.19009595 0.39580932 1.5720288 1.7426406e-38
-0.18386854 0.39613837 1.5733355 1.7517883e-38
-0.17829828 0.39795777 1.5805618 1.7425685e-38
-0.17003761 0.39368397 1.5635875 1.7333493e-38
-0.16285092 0.39166176 1.5555559 1.7148386e-38
-0.15644123 0.39142048 1.5545977 1.6872514e-38
-0.1496096 0.39005888 1.5491898 1.6042397e-38
-0.14297111 0.38910344 1.5453951 1.1063839e-38
-0.13655971 0.38870671 1.5438195 7.3763847e-39
-0.13016137 0.38831082 1.5422471 6.5473373e-39
-0.12354977 0.38720652 1.5378612 3.8736668e-39
-0.11716552 0.3867352 1.5359892 2.4907309e-39
-0.1105057 0.38525015 1.530091 2.6751264e-39
-0.10227022 0.3777681 1.5003747 2.4910939e-39
-0.095424473 0.37479705 1.4885746 2.4907324e-39
-0.082700059 0.34677419 1.3772768 2.6747649e-39
-0.076442845 0.34377235 1.3653545 3.5052444e-39
-0.070634015 0.34247535 1.3602031 3.413046e-39
-0.065101899 0.34241381 1.3599588 3.4130516e-39
-0.059401076 0.34137139 1.3558185 3.4130502e-39
-0.053591337 0.33942625 1.348093 3.2286561e-39
-0.047881342 0.33774233 1.3414052 3.3212119e-39
-0.042317249 0.33678758 1.3376132 3.3208532e-39
-0.036914598 0.33702576 1.3385592 3.1364633e-39
-0.031349 0.33560172 1.3329033 3.2283016e-39
-0.025834765 0.33424824 1.3275278 3.4130502e-39
-0.020350613 0.33267325 1.3212724 3.2282988e-39
-0.014954267 0.33192021 1.3182815 3.2290205e-39
-0.0095673371 0.33065355 1.3132508 3.4134103e-39
-0.0042184498 0.32916901 1.3073547 3.6903545e-39
0.0010841133 0.32814905 1.3033036 3.6899944e-39
0.0063801948 0.32848832 1.3046511 3.5985204e-39
0.011597214 0.32629541 1.2959416 4.0595014e-39
0.016888626 0.32691094 1.2983863 4.7041519e-39
0.022078646 0.32573783 1.293727 4.7048722e-39
0.027287304 0.32523763 1.2917404 4.9818178e-39
0.032391701 0.32385623 1.2862539 5.2576788e-39
0.037849925 0.32590491 1.2943907 5.8112156e-39
0.043066427 0.32562655 1.293285 5.6275502e-39
0.048315257 0.32562655 1.293285 6.5484275e-39
0.053646564 0.32612795 1.2952764 4.2431766e-39
0.058883332 0.32601637 1.2948334 3.136829e-39
0.064105555 0.32584921 1.2941693 3.2290233e-39
0.069524355 0.32663086 1.297274 3.2290261e-39
0.074699774 0.32623956 1.2957197 3.5978086e-39
0.080095567 0.32679886 1.2979412 3.5981645e-39
0.085377932 0.32685488 1.2981638 3.4141306e-39
0.091146685 0.32865822 1.305326 3.6903601e-39
0.10066599 0.32518214 1.2915201 3.6907217e-39
0.15748574 0.34639612 1.3757752 4.0595042e-39
0.16342573 0.34715313 1.3787818 4.0591455e-39
0.16764763 0.34433123 1.3675742 4.1509824e-39
0.17372729 0.33465901 1.3291591 4.0595042e-39
0.18396632 0.34371039 1.3651084 4.1517012e-39
0.1866129 0.33846197 1.3442633 4.1513411e-39
0.19564669 0.34476718 1.3693056 3.9676687e-39
0.20479698 0.35092375 1.3937575 4.0591455e-39
0.20298009 0.33846197 1.3442633 4.0591455e-39
0.20566057 0.33395547 1.3263649 4.2435353e-39
0.21389155 0.33846197 1.3442633 4.1509782e-39
0.21692078 0.33471778 1.3293926 3.966947e-39
0.22038129 0.33180466 1.3178226 3.9669484e-39
0.22968777 0.3376227 1.34093 3.9669498e-39
0.23483881 0.33720464 1.3392695 3.9669512e-39
0.23892181 0.33530656 1.331731 3.7825586e-39
0.24398334 0.33483538 1.3298596 3.5992477e-39
0.24929303 0.33471778 1.3293926 3.78256e-39
0.25477788 0.33483538 1.3298596 3.7822012e-39
0.2605871 0.33536553 1.3319653 3.78256e-39
0.26759359 0.33738369 1.3399807 3.5981687e-39
0.27601188 0.34106597 1.3546056 3.59781e-39
0.28513175 0.34545448 1.3720353 3.4134173e-39
0.3062982 0.3639904 1.4456542 3.229382e-39
0.32359666 0.37731943 1.4985927 3.1364675e-39
0.33270815 0.3807866 1.5123633 3.0439131e-39
0.34212661 0.38447312 1.527005 2.7673248e-39
0.35008925 0.38642159 1.5347437 2.4907366e-39
0.35747752 0.38767901 1.5397378 2.3981822e-39
0.36603433 0.39013872 1.5495069 2.2141497e-39
0.37570637 0.39368397 1.5635875 2.2134308e-39
0.37668437 0.38815266 1.5416189 2.028678e-39
0.38123325 0.38642159 1.5347437 1.75281e-39
0.3876192 0.38657832 1.5353662 3.6892755e-39
0.39353129 0.38626501 1.5341218 5.2580474e-39
0.39878786 0.38532802 1.5304004 5.9959726e-39
0.40713885 0.38736391 1.5384862 1.0050048e-38
0.41087797 0.38501671 1.529164 1.4750936e-38
0.41666335 0.3846283 1.5276213 1.5027522e-38
0.42226681 0.38408577 1.5254666 1.4843133e-38
0.42751044 0.38323638 1.5220931 1.42896e-38
0.43238395 0.38208413 1.5175167 1.2721558e-38
0.43845496 0.38200757 1.5172126 5.3455515e-39
0.44381213 0.38131982 1.5144811 2.5822077e-39
0.44968882 0.38109112 1.5135727 2.121231e-39
0.4562878 0.38147244 1.5150872 1.4758616e-39
0.46290001 0.38185453 1.5166048 1.5676999e-39
0.46266025 0.37664846 1.4959278 1.6598941e-39
0.46900952 0.37687185 1.4968151 1.6598927e-39
0.46470252 0.36863619 1.4641057 1.752447e-39
0.46542427 0.36454728 1.4478658 2.0290367e-39
0.45629144 0.35293794 1.4017572 2.1212324e-39
0.45690474 0.34906021 1.3863561 2.1219526e-39
0.4581686 0.34576777 1.3732797 2.2141483e-39
0.46214932 0.3445802 1.3685631 2.3063439e-39
0.44235539 0.32590491 1.2943907 2.3059838e-39
0.45030329 0.32786682 1.3021828 2.4900149e-39
0.45185775 0.32518214 1.2915201 2.3978193e-39
0.45827204 0.32601637 1.2948334 2.4900149e-39
0.46210459 0.32501581 1.2908595 2.5825735e-39
0.46846181 0.3257935 1.2939482 2.7673262e-39
0.47347057 0.32562655 1.293285 3.0439103e-39
0.47814763 0.32523763 1.2917404 2.5829322e-39
0.48380294 0.32551533 1.2928433 2.3985381e-39
0.48896646 0.32545975 1.2926227 2.4907352e-39
0.49186122 0.32391125 1.2864726 2.5825735e-39
0.50039858 0.32607216 1.2950549 2.4900191e-39
0.50119644 0.32319731 1.2836369 2.3978221e-39
0.51204926 0.32679886 1.2979412 2.5822133e-39
0.51502132 0.32534865 1.2921814 2.5825749e-39
0.52774179 0.33002385 1.3107498 2.6747705e-39
0.53067273 0.32854494 1.3048761 2.5825721e-39
0.57121414 0.35015023 1.3906853 2.6751292e-39
0.58415484 0.35457921 1.4082758 2.6751292e-39
0.58529776 0.35183051 1.3973589 2.5829336e-39
0.59769833 0.35583681 1.4132706 2.675132e-39
0.57114851 0.31025681 1.2322414 2.7669675e-39
0.58183151 0.31331652 1.2443936 2.7669661e-39
0.57460409 0.3067618 1.2183603 2.6744089e-39
0.58254874 0.3083497 1.224667 2.6744089e-39
0.59057611 0.30995411 1.2310392 2.4903792e-39
0.59076929 0.30745447 1.2211114 2.3981808e-39
0.59562916 0.30740491 1.2209145 2.213428e-39
0.60000372 0.30710775 1.2197343 1.8439266e-39
0.60417533 0.30671242 1.2181642 1.6602542e-39
0.6091193 0.30671242 1.2181642 2.0297584e-39
0.6140632 0.30671242 1.2181642 2.767685e-39
0.61831075 0.30636737 1.2167938 2.9524364e-39
0.62324917 0.30636737 1.2167938 3.1364717e-39
0.63041657 0.30745447 1.2211114 3.0442775e-39
0.63041657 0.30745447 1.2211114 3.3201455e-39
0.63041657 0.30745447 1.2211114 3.2286673e-39
0.63041657 0.30745447 1.2211114 3.2286673e-39
0.63041657 0.30745447 1.2211114 3.2279485e-39
-1.0109563 0.41708535 1.6302521 9.6801698e-39
-1.0073767 0.41834652 1.6351815 9.9563994e-39
-1.0072669 0.42107487 1.6458458 1.0232988e-38
-1.0056152 0.42319083 1.6541164 1.0325541e-38
-1.0030658 0.42495489 1.6610116 1.0233345e-38
-1.0022616 0.42748719 1.6709094 1.0417373e-38
-1.0111009 0.43419513 1.6971287 1.087871e-38
-1.0447282 0.45171279 1.7655995 1.1154581e-38
-1.0111517 0.44021463 1.720657 1.133969e-38
-0.96134484 0.42144135 1.6472782 1.1708111e-38
-0.94867337 0.4187988 1.6369493 1.2169089e-38
-0.93016386 0.41352358 1.6163303 1.2721188e-38
-0.91288477 0.40872428 1.5975714 1.3182526e-38
-0.90831769 0.40958858 1.6009496 1.3367638e-38
-0.9025836 0.40993533 1.6023049 1.3643503e-38
-0.89646006 0.41010892 1.6029835 1.3644936e-38
-0.88844943 0.40941542 1.6002728 1.3829329e-38
-0.88401008 0.41036958 1.6040022 1.4105557e-38
-0.8799237 0.41150296 1.6084323 1.428959e-38
-0.87506902 0.41229129 1.6115136 1.4289948e-38
-0.87149674 0.41370022 1.6170207 1.429031e-38
-0.86327457 0.4129065 1.6139183 1.4566177e-38
-0.85928893 0.41414249 1.6187494 1.4565819e-38
-0.85399735 0.41476327 1.6211758 1.4382148e-38
-0.84741777 0.41476327 1.6211758 1.4566538e-38
-0.83922082 0.41396546 1.6180575 1.4750927e-38
-0.83820736 0.41672641 1.6288491 1.4751285e-38
-0.83519036 0.41852731 1.6358882 1.4935321e-38
-0.82962668 0.41907063 1.6380118 1.4934603e-38
-0.82315683 0.41916132 1.6383663 1.4934602e-38
-0.81810081 0.41997927 1.6415635 1.5119711e-38
-0.81055975 0.41952446 1.6397858 1.4936397e-38
-0.81306195 0.42430326 1.6584646 1.4936393e-38
-0.81327909 0.42795944 1.6727554 1.5212265e-38
-0.80577803 0.42758155 1.6712784 1.5211908e-38
-0.80414301 0.43033648 1.6820464 1.5488133e-38
-0.8041051 0.43400055 1.6963681 1.5580687e-38
-0.79811448 0.43448731 1.6982707 1.5672884e-38
-0.79211044 0.43497518 1.7001776 1.5673244e-38
-0.78680044 0.43585607 1.7036208 1.5949111e-38
-0.78305793 0.43762866 1.7105492 1.6040589e-38
-0.77089047 0.43468231 1.6990329 1.6040945e-38
-0.76365215 0.43448731 1.6982707 1.6317529e-38
-0.76326573 0.43822271 1.7128712 1.6133858e-38
-0.76531774 0.44343966 1.7332625 1.61335e-38
-0.78228182 0.45747387 1.7881178 1.6040945e-38
-0.77411056 0.45693427 1.7860087 1.6225336e-38
-0.75739235 0.4512918 1.763954 1.6317172e-38
-0.74970925 0.45097658 1.7627219 1.6041304e-38
-0.72074002 0.43772754 1.7109357 1.6132421e-38
-0.70409006 0.43177539 1.6876707 1.576472e-38
-0.69599938 0.43100676 1.6846664 1.5488133e-38
-0.61243713 0.38302243 1.4971111 1.539593e-38
-0.60624123 0.3829467 1.4968151 1.5303375e-38
-0.59933686 0.38241747 1.4947464 1.5487411e-38
-0.59420896 0.38302243 1.4971111 1.5395216e-38
-0.59035093 0.38446695 1.5027572 1.5764e-38
-0.58681446 0.38615319 1.5093483 1.5856913e-38
-0.58301336 0.38769904 1.5153905 1.5857269e-38
-0.57941455 0.38941383 1.5220931 1.6133139e-38
-0.57636577 0.39153919 1.5304004 1.5948755e-38
-0.57316697 0.39360788 1.5384862 1.3831123e-38
-0.56981784 0.39561772 1.546342 7.3777874e-39
-0.57053381 0.40052614 1.5655274 9.0362325e-39
-0.56722969 0.40269116 1.5739897 1.6409006e-38
-0.56353629 0.40462595 1.5815523 1.788414e-38
-0.55980718 0.40657943 1.5891879 1.7424601e-38
-0.55580747 0.40837958 1.5962241 1.7332406e-38
-0.55188906 0.41028267 1.6036625 1.7516797e-38
-0.54781735 0.41211584 1.6108278 1.7240567e-38
-0.5437091 0.41396546 1.6180575 1.7332763e-38
-0.53921652 0.41556412 1.6243061 1.7423881e-38
-0.53331077 0.41609976 1.6263998 1.7331685e-38
-0.5270496 0.4163681 1.6274486 1.7148014e-38
-0.5197742 0.41583177 1.6253523 1.705654e-38
-0.51829606 0.41997927 1.6415635 1.7148739e-38
-0.51319158 0.42125803 1.6465617 1.7240573e-38
-0.49987727 0.41574252 1.6250033 1.7424245e-38
-0.49159393 0.41431966 1.6194419 1.7424241e-38
-0.44696924 0.38181439 1.4923893 1.7424243e-38
-0.4742893 0.41071764 1.6053628 1.705654e-38
-0.44085163 0.38707921 1.5129678 1.7516804e-38
-0.43575621 0.3880097 1.5166048 1.7884512e-38
-0.42746028 0.38607621 1.5090474 1.7792316e-38
-0.42058131 0.38538489 1.5063452 1.7516805e-38
-0.41307059 0.38408574 1.5012673 1.7148379e-38
-0.41039559 0.38731143 1.5138754 1.724093e-38
-0.40449414 0.38754392 1.5147841 1.7424959e-38
-0.39612713 0.38538489 1.5063452 1.724093e-38
-0.45660573 0.45118669 1.7635431 1.7148376e-38
-0.45197511 0.45372322 1.7734576 1.7332048e-38
-0.44687104 0.45585889 1.7818053 1.7516082e-38
-0.43564096 0.45171279 1.7655995 1.7792666e-38
-0.43507028 0.45866549 1.7927755 1.7792303e-38
-0.42993221 0.46095774 1.801735 1.7791943e-38
-0.42822483 0.46707124 1.8256308 1.7607916e-38
-0.36273578 0.40260744 1.5736626 1.7792312e-38
-0.35664555 0.40294245 1.574972 1.7701191e-38
-0.34614894 0.39822048 1.5565153 1.7793382e-38
-0.34264964 0.40152249 1.5694218 1.7701551e-38
-0.33351463 0.39822048 1.5565153 1.7609714e-38
-0.32439634 0.39481133 1.5431901 1.7517877e-38
-0.31365794 0.38925731 1.5214813 1.7425326e-38
-0.30760658 0.38941383 1.5220931 1.7425324e-38
-0.30112645 0.38902277 1.5205646 1.7517519e-38
-0.29365763 0.38731143 1.5138754 1.7608995e-38
-0.28757104 0.38738889 1.5141782 1.7701191e-38
-0.28681788 0.39481133 1.5431901 1.742425e-38
-0.28550133 0.40177232 1.5703984 1.7148742e-38
-0.28419751 0.40906957 1.5989209 1.7332411e-38
-0.26569986 0.39138097 1.5297819 1.7240936e-38
-0.26604971 0.40127292 1.5684464 1.7240939e-38
-0.2636717 0.40743467 1.5925306 1.7148742e-38
-0.25437251 0.40294245 1.574972 1.7424608e-38
-0.25271189 0.41063058 1.6050224 1.7701191e-38
-0.23984207 0.40002984 1.5635875 1.7426042e-38
-0.22459051 0.38477242 1.5039513 1.7334208e-38
-0.20901977 0.36810043 1.4387858 1.7610081e-38
-0.20647651 0.37407193 1.4621265 1.7425333e-38
-0.20384938 0.38024035 1.4862369 1.7332777e-38
-0.20053373 0.38546157 1.506645 1.7149106e-38
-0.20085432 0.39822048 1.5565153 1.7517886e-38
-0.19787301 0.40504903 1.5832059 1.7609717e-38
-0.18934892 0.40060899 1.5658512 1.742533e-38
-0.18329716 0.40127292 1.5684464 1.7332415e-38
-0.17803809 0.40378246 1.5782553 1.742461e-38
-0.16881733 0.39715901 1.5523664 1.6964713e-38
-0.16201869 0.39594123 1.5476065 1.668741e-38
-0.15551516 0.39537546 1.5453951 1.6319343e-38
-0.14875729 0.39408839 1.5403644 1.5120443e-38
-0.14207211 0.39288932 1.5356777 9.2199259e-39
-0.13575691 0.3926504 1.5347437 6.270749e-39
-0.12934457 0.39209402 1.5325689 4.6119451e-39
-0.12275187 0.39090705 1.5279295 2.8598778e-39
-0.11638631 0.39035559 1.525774 2.1219554e-39
-0.10977358 0.38886657 1.519954 2.3989039e-39
-0.10006894 0.37559518 1.4680804 2.490738e-39
-0.093224913 0.37206 1.4542625 2.3981766e-39
-0.083828546 0.35717213 1.3960706 2.7669577e-39
-0.07704027 0.35204369 1.3760252 3.320493e-39
-0.071029611 0.3499448 1.3678213 3.4126886e-39
-0.065348409 0.3492507 1.3651084 3.3212147e-39
-0.059539687 0.34768343 1.3589823 3.3212133e-39
-0.053677358 0.34545112 1.3502569 3.2290177e-39
-0.047923796 0.34349078 1.3425946 3.2286603e-39
-0.042384647 0.34276137 1.3397435 3.2286603e-39
-0.036934189 0.3426401 1.3392695 3.2286603e-39
-0.031349 0.34101135 1.3329033 3.0446292e-39
-0.025816659 0.339398 1.3265973 3.3204972e-39
-0.020339964 0.3378588 1.320581 3.2283002e-39
-0.014946459 0.3370944 1.3175932 3.0446292e-39
-0.0095706573 0.33610001 1.3137065 3.1368234e-39
-0.0042213653 0.33470613 1.3082583 3.2290177e-39
0.0010852342 0.3337833 1.3046511 3.1364619e-39
0.0063823946 0.33389837 1.305101 2.9527909e-39
0.011607149 0.33183903 1.2970517 3.1368234e-39
0.016897321 0.33235148 1.2990547 3.3204958e-39
0.022124013 0.33166856 1.2963854 3.3201371e-39
0.027277997 0.33036745 1.2912998 3.3212161e-39
0.032375198 0.32890889 1.2855988 3.7825516e-39
0.037778873 0.3305366 1.2919608 3.87475e-39
0.042992983 0.33031112 1.2910796 3.8747556e-39
0.048232865 0.33031112 1.2910796 4.5197621e-39
0.053536654 0.33070588 1.2926227 3.4134145e-39
0.058722638 0.33036745 1.2912998 3.2286659e-39
0.063963413 0.33036745 1.2912998 3.1364703e-39
0.06936983 0.33115822 1.2943907 3.2290247e-39
0.074406885 0.3301985 1.2906394 3.597447e-39
0.079320453 0.32885304 1.2853805 3.6896427e-39
0.084839687 0.33002973 1.2899797 3.5059689e-39
0.090584435 0.33189589 1.297274 3.5059703e-39
0.14631845 0.33904156 1.325204 3.9665897e-39
0.15193619 0.33957651 1.3272951 4.0591441e-39
0.15743345 0.33981481 1.3282264 3.9669498e-39
0.16348375 0.34119156 1.3336077 3.9673072e-39
0.16821472 0.33981481 1.3282264 3.9673072e-39
0.17290767 0.33844915 1.3228885 4.1513411e-39
0.17962627 0.34101135 1.3329033 4.1513439e-39
0.18477565 0.34053171 1.3310286 4.1509824e-39
0.1933388 0.34619203 1.353153 4.2431808e-39
0.20307726 0.35358605 1.3820539 3.9673128e-39
0.2014776 0.34137195 1.3343128 4.1513397e-39
0.20458531 0.33756438 1.3194302 4.1513397e-39
0.21197206 0.34083134 1.3321997 4.0591441e-39
0.21585949 0.33844915 1.3228885 4.0591427e-39
0.21984555 0.33633345 1.3146189 4.0587867e-39
0.22819236 0.34083134 1.3321997 4.1509838e-39
0.23483881 0.3426401 1.3392695 3.8751143e-39
0.24006194 0.34233731 1.338086 3.8747542e-39
0.24480034 0.34137195 1.3343128 3.7829201e-39
0.25030392 0.34149233 1.3347833 3.9665925e-39
0.25545093 0.34113145 1.3333728 3.78256e-39
0.26081654 0.3410714 1.333138 3.78256e-39
0.26797301 0.34330812 1.3418807 3.6900056e-39
0.27566662 0.34613016 1.3529111 3.5059731e-39
0.28420466 0.34988159 1.3675742 3.3215804e-39
0.30676684 0.3704235 1.4478658 3.2293834e-39
0.325012 0.3850784 1.5051472 3.1361102e-39
0.33178028 0.38584551 1.5081456 3.0439131e-39
0.33850801 0.38653851 1.5108542 2.7676822e-39
0.34699425 0.38917911 1.5211755 2.490738e-39
0.35217732 0.38808745 1.5169086 2.3059852e-39
0.35999268 0.38988414 1.5239313 2.1219554e-39
0.36990044 0.393848 1.5394248 2.1212366e-39
0.37318882 0.39074934 1.527313 1.9364838e-39
0.37908155 0.39043427 1.5260816 2.028678e-39
0.38550833 0.39067051 1.527005 1.9382788e-39
0.39146885 0.39043427 1.5260816 2.5840084e-39
0.39702225 0.38980567 1.5236247 4.1509768e-39
0.40499905 0.39153919 1.5304004 8.5752754e-39
0.40971941 0.39011973 1.5248522 1.3000656e-38
0.41557327 0.38980567 1.5236247 1.4014448e-38
0.42158726 0.38964885 1.5230116 1.4381797e-38
0.42699537 0.38894466 1.5202591 1.4289241e-38
0.431519 0.38746637 1.5144811 1.3367286e-38
0.43766558 0.38746637 1.5144811 7.8362656e-39
0.44274932 0.38653851 1.5108542 3.0435446e-39
0.44852313 0.3862302 1.5096492 2.581849e-39
0.45483148 0.38638428 1.5102515 1.8442853e-39
0.46040979 0.38592237 1.5084461 1.7520911e-39
0.4580445 0.37890148 1.4810036 1.8439252e-39
0.46107873 0.37647122 1.4715046 1.6602514e-39
0.4594602 0.37035266 1.447589 1.6606144e-39
0.46145305 0.36726287 1.4355121 1.937204e-39
0.4619363 0.36306363 1.4190985 2.1212366e-39
0.45909047 0.35638353 1.3929882 2.2134308e-39
0.46143284 0.35384443 1.3830637 2.1215939e-39
0.46560007 0.35274893 1.3787818 2.2141483e-39
0.44303712 0.33166856 1.2963854 2.3059852e-39
0.45139024 0.33395594 1.305326 2.3059838e-39
0.45309442 0.33132815 1.2950549 2.4900163e-39
0.46000287 0.33252266 1.2997237 2.4900163e-39
0.46408278 0.33166856 1.2963854 2.4907366e-39
0.4700686 0.3321805 1.2983863 2.767685e-39
0.47533813 0.3321805 1.2983863 2.9520748e-39
0.48011363 0.33183903 1.2970517 2.490738e-39
0.4860439 0.33229446 1.2988318 2.3063453e-39
0.49106252 0.33212352 1.2981638 2.5825706e-39
0.49362266 0.33031112 1.2910796 2.5825721e-39
0.50203019 0.33240852 1.2992777 2.3981822e-39
0.50367296 0.33002973 1.2899797 2.3981808e-39
0.51434189 0.33355337 1.3037525 2.4903778e-39
0.53031254 0.33697709 1.3171347 2.4907436e-39
0.57037598 0.35527226 1.3886447 2.8584457e-39
0.58415484 0.36029473 1.4082758 2.8591617e-39
0.58757514 0.3588928 1.4027961 2.6751278e-39
0.59803319 0.36177519 1.4140625 2.7669647e-39
0.57839727 0.31925902 1.2478805 2.6751292e-39
0.57478905 0.31180689 1.2187525 2.6747719e-39
0.58273727 0.31342143 1.2250632 2.6747691e-39
0.59057611 0.31495032 1.2310392 2.5825721e-39
0.5911507 0.31261209 1.2218997 2.3978207e-39
0.59610981 0.31261209 1.2218997 2.213428e-39
0.60039061 0.31225929 1.2205209 1.7524484e-39
0.60446709 0.31180689 1.2187525 1.5680586e-39
0.60960972 0.31190732 1.2191451 2.0297584e-39
0.61455762 0.31190732 1.2191451 2.8595219e-39
0.61880803 0.31155613 1.2177724 3.0442747e-39
0.62375039 0.31155613 1.2177724 2.952079e-39
0.63133305 0.31286454 1.2228866 3.2279485e-39
0.63133305 0.31286454 1.2228866 3.1364689e-39
0.63133305 0.31286454 1.2228866 3.2286631e-39
0.63133305 0.31286454 1.2228866 3.3205014e-39
0.63133305 0.31286454 1.2228866 3.1364703e-39
0.63133305 0.31286454 1.2228866 3.2290261e-39
0.63133305 0.31286454 1.2228866 3.2283058e-39
-1.0116097 0.42397568 1.6313059 1.1154224e-38
-1.0084658 0.4254424 1.6369493 1.1339691e-38
-1.0055181 0.42701197 1.6429884 1.1616278e-38
-1.0080378 0.43093979 1.6581013 1.1892865e-38
-1.0106044 0.43494055 1.6734948 1.1892865e-38
-1.0100639 0.43764925 1.683917 1.2260926e-38
-1.01657 0.44346881 1.7063085 1.2444957e-38
-1.0322106 0.45338044 1.7444448 1.2353484e-38
-1.0058936 0.4448725 1.7117094 1.2722626e-38
-0.96428216 0.42943498 1.6523114 1.299885e-38
-0.95217323 0.42701197 1.6429884 1.3183601e-38
-0.93275261 0.42125264 1.6208286 1.3459832e-38
-0.91288477 0.41520807 1.5975714 1.3644223e-38
-0.90947157 0.41661468 1.6029835 1.373714e-38
-0.90373123 0.41696781 1.6043422 1.3644942e-38
-0.89589101 0.41635022 1.6019659 1.3644938e-38
-0.88769889 0.41555884 1.5989209 1.4105559e-38
-0.88232768 0.41608608 1.6009496 1.4381427e-38
-0.87787217 0.41705617 1.6046822 1.4381064e-38
-0.87581474 0.41918856 1.6128868 1.4381781e-38
-0.87261498 0.42080221 1.6190956 1.4289588e-38
-0.86290663 0.41927788 1.6132305 1.4474343e-38
-0.85873812 0.42044255 1.6177117 1.4658734e-38
-0.85472947 0.42170405 1.6225655 1.4382506e-38
-0.84850794 0.42188486 1.6232613 1.4382503e-38
-0.8395797 0.42071223 1.6187494 1.4291026e-38
-0.83929074 0.42388433 1.6309545 1.4843125e-38
-0.83826959 0.42673412 1.6419195 1.4934605e-38
-0.83595693 0.42896688 1.6505103 1.4842764e-38
-0.82494205 0.42673412 1.6419195 1.4935318e-38
-0.81650746 0.42581066 1.6383663 1.493604e-38
-0.80636811 0.42397568 1.6313059 1.5120431e-38
-0.81004536 0.42943498 1.6523114 1.5211905e-38
-0.81202316 0.43407699 1.6701722 1.5396296e-38
-0.80418032 0.43350321 1.6679645 1.5488492e-38
-0.799348 0.43455634 1.6720165 1.5580326e-38
-0.80176967 0.43960479 1.6914412 1.5672519e-38
-0.7926029 0.43833172 1.6865429 1.5672523e-38
-0.78558302 0.43823409 1.6861672 1.5857276e-38
-0.78065217 0.43931034 1.6903083 1.5857276e-38
-0.78058887 0.44316915 1.7051556 1.6040952e-38
-0.76318324 0.43716308 1.6820464 1.5949468e-38
-0.75669289 0.43735743 1.6827941 1.5764714e-38
-0.79887152 0.46594152 1.7927755 1.5948748e-38
-0.82479841 0.48548511 1.867972 1.6133141e-38
-0.82949692 0.49278015 1.8960408 1.6133498e-38
-0.84334481 0.50569803 1.9457443 1.6133139e-38
-0.87080842 0.52710181 2.0280983 1.6040942e-38
-0.73988998 0.45213029 1.7396349 1.5856913e-38
-0.69924897 0.43141222 1.659919 1.5948391e-38
-0.62744296 0.39087626 1.5039513 1.594875e-38
-0.60864395 0.38288987 1.4732226 1.5396295e-38
-0.60254759 0.38281539 1.4729359 1.5395576e-38
-0.59831572 0.38393581 1.477247 1.5395214e-38
-0.59405899 0.38506284 1.4815834 1.548705e-38
-0.59058857 0.38672781 1.4879895 1.5487047e-38
-0.58755195 0.38871416 1.4956323 1.5579604e-38
-0.58436793 0.39064345 1.5030556 1.5764358e-38
-0.58092034 0.3924354 1.5099503 1.5579604e-38
-0.57674766 0.39377049 1.5150872 1.5948747e-38
-0.57254648 0.39511466 1.5202591 1.2817334e-38
-0.56785882 0.3961488 1.5242381 6.5491113e-39
-0.56474251 0.39831397 1.5325689 9.2224244e-39
-0.56136346 0.40033999 1.5403644 1.6409723e-38
-0.55966663 0.40362483 1.5530032 1.7884498e-38
-0.55875063 0.40755409 1.5681216 1.7516435e-38
-0.55549294 0.4098461 1.5769404 1.7516441e-38
-0.55173606 0.41181898 1.5845313 1.7240217e-38
-0.54851961 0.41424653 1.5938717 1.7148016e-38
-0.54503417 0.41652647 1.6026441 1.7148375e-38
-0.54081947 0.41829741 1.6094581 1.7056179e-38
-0.53576809 0.41945663 1.6139183 1.7332403e-38
-0.53034854 0.42035273 1.6173661 1.7516437e-38
-0.52322555 0.4199042 1.6156404 1.7516437e-38
-0.51799488 0.42098227 1.6197884 1.7332406e-38
-0.51450312 0.4235194 1.6295503 1.7608279e-38
-0.50162733 0.41829741 1.6094581 1.7699753e-38
-0.49341699 0.41687948 1.6040022 1.7515361e-38
-0.48825186 0.41803083 1.6084323 1.7607551e-38
-0.45079026 0.3911871 1.5051472 1.7332046e-38
-0.47298548 0.41608608 1.6009496 1.7148375e-38
-0.44288731 0.39503536 1.519954 1.7332053e-38
-0.43830243 0.39646807 1.5254666 1.7331685e-38
-0.42917117 0.39377049 1.5150872 1.7700106e-38
-0.42259929 0.39337686 1.5135727 1.7516442e-38
-0.41446775 0.39149842 1.5063452 1.7332773e-38
-0.4108063 0.39384928 1.5153905 1.7056545e-38
-0.40506145 0.39424387 1.5169086 1.7056176e-38
-0.39675868 0.39212257 1.5087466 1.7332406e-38
-0.45543873 0.45717266 1.7590359 1.7331329e-38
-0.44944835 0.45834407 1.7635431 1.7240211e-38
-0.43111664 0.45411289 1.7472631 1.7976696e-38
-0.43008 0.46059716 1.7722123 1.7792305e-38
-0.36197481 0.40107441 1.5431901 1.7700471e-38
-0.3607114 0.40671167 1.5648803 1.8068897e-38
-0.35116655 0.4030461 1.5507765 1.7701914e-38
-0.34416771 0.40222222 1.5476065 1.8069615e-38
-0.34088302 0.40578905 1.5613303 1.8070334e-38
-0.33351463 0.40453765 1.5565153 1.78863e-38
-0.32086462 0.39670789 1.5263892 1.8069975e-38
-0.31159151 0.39282712 1.5114576 1.7977783e-38
-0.30711263 0.39495605 1.5196489 1.7794107e-38
-0.29884562 0.39220074 1.5090474 1.7701907e-38
-0.29173258 0.39087626 1.5039513 1.8069256e-38
-0.28574228 0.39103162 1.504549 1.806926e-38
-0.28398153 0.3971082 1.5279295 1.7978142e-38
-0.28807071 0.41181898 1.5845313 1.7517524e-38
-0.28111035 0.41104472 1.5815523 1.7793032e-38
-0.2647903 0.39622858 1.5245451 1.7977426e-38
-0.26155233 0.40074769 1.5419329 1.7794836e-38
-0.25898662 0.40654361 1.5642337 1.7610799e-38
-0.25305641 0.4072167 1.5668234 1.7886668e-38
-0.22525358 0.37181994 1.4306294 1.751788e-38
-0.23743924 0.40230444 1.5479228 1.770227e-38
-0.22909598 0.39871755 1.5341218 1.7610434e-38
-0.20826775 0.37259442 1.4336094 1.7702273e-38
-0.20576122 0.37868959 1.4570613 1.742569e-38
-0.20281419 0.38431075 1.4786896 1.7241658e-38
-0.20041409 0.3913427 1.505746 1.7425694e-38
-0.19889157 0.40058449 1.5413052 1.7333499e-38
-0.19741888 0.41053015 1.5795724 1.7148743e-38
-0.18853007 0.40520409 1.5590796 1.742533e-38
-0.1828804 0.40671167 1.5648803 1.714839e-38
-0.17752001 0.4089942 1.5736626 1.68718e-38
-0.16812785 0.40181154 1.5460263 1.6687769e-38
-0.16132617 0.40050298 1.5409914 1.6318984e-38
-0.15472558 0.39960825 1.5375489 1.5673614e-38
-0.14809442 0.39855602 1.5335003 1.4659825e-38
-0.14138383 0.39718834 1.5282379 8.8525825e-39
-0.1350179 0.39670789 1.5263892 5.0718414e-39
-0.12864147 0.3961488 1.5242381 5.4399065e-39
-0.12208661 0.39495605 1.5196489 4.058421e-39
-0.11573324 0.39432287 1.5172126 2.6751306e-39
-0.10748618 0.38680384 1.4882821 2.3992626e-39
-0.099279635 0.37854388 1.4565008 2.1219554e-39
-0.092567019 0.37529489 1.4439998 2.2137867e-39
-0.085051864 0.36813304 1.4164436 2.2137825e-39
-0.078076176 0.3624371 1.3945277 2.2137839e-39
-0.071690172 0.35880217 1.3805417 2.0290339e-39
-0.065871 0.35762835 1.3760252 2.5818476e-39
-0.059991971 0.3558819 1.3693056 2.9513476e-39
-0.054072753 0.35351619 1.3602031 3.1361032e-39
-0.048283417 0.35155818 1.3526695 3.1368234e-39
-0.042626023 0.35018173 1.3473734 3.2286589e-39
-0.037039023 0.34906352 1.3430709 3.0446292e-39
-0.031376619 0.34672618 1.3340777 3.0446306e-39
-0.025852898 0.34526601 1.3284595 3.2290233e-39
-0.020361273 0.34357798 1.3219645 3.2286617e-39
-0.014954267 0.34262076 1.3182815 3.0446292e-39
-0.0095723178 0.34149098 1.3139346 3.1364661e-39
-0.0042228247 0.34013328 1.3087106 3.2283002e-39
0.0010846735 0.33890304 1.303977 3.1361046e-39
0.0063768979 0.33890304 1.303977 3.0439103e-39
0.01159523 0.33675697 1.2957197 3.0442691e-39
0.01687705 0.3372187 1.2974963 3.1364619e-39
0.022131592 0.3370454 1.2968296 3.0446278e-39
0.027273346 0.33555099 1.2910796 3.0446292e-39
0.032336764 0.33372983 1.2840724 3.5052472e-39
0.03765678 0.33469486 1.2877854 3.5052486e-39
0.042817742 0.33418328 1.285817 3.5052514e-39
0.048077088 0.33446729 1.2869098 3.5978016e-39
0.053309109 0.33452415 1.2871287 3.3212175e-39
0.058513056 0.33441046 1.2866912 3.1364703e-39
0.063681014 0.33412653 1.2855988 3.1364731e-39
0.069086351 0.33503678 1.2891011 3.3212189e-39
0.074040845 0.33378643 1.2842902 3.597447e-39
0.078719035 0.33153683 1.2756345 3.5978072e-39
0.084052011 0.33215246 1.2780032 3.5981659e-39
0.090090454 0.33532226 1.2901995 3.6900028e-39
0.095116042 0.33458105 1.2873476 3.6903615e-39
0.11454947 0.34593374 1.3310286 3.7829159e-39
0.11946841 0.34454054 1.3256681 3.7829187e-39
0.12467401 0.3440586 1.3238138 3.9669484e-39
0.12993315 0.34375805 1.3226573 3.7829145e-39
0.14069381 0.34381813 1.3228885 4.0587867e-39
0.14601175 0.34369799 1.3224263 4.0587825e-39
0.15156418 0.34411877 1.3240453 4.0591427e-39
0.15674596 0.34369799 1.3224263 3.8751129e-39
0.16245358 0.34441993 1.325204 3.783276e-39
0.16689712 0.34250149 1.3178226 3.7829173e-39
0.16929865 0.33664176 1.2952764 4.1513439e-39
0.17815213 0.34357798 1.3219645 3.9669512e-39
0.18383837 0.34417894 1.3242768 3.8751115e-39
0.19024456 0.34605542 1.3314968 3.9673142e-39
0.20211795 0.35749838 1.3755252 4.0587895e-39
0.20069942 0.34544787 1.3291591 3.87475e-39
0.20437162 0.34256113 1.3180521 3.966947e-39
0.21049051 0.34381813 1.3228885 3.9673114e-39
0.21642675 0.34472165 1.3263649 3.8751157e-39
0.2208811 0.34327829 1.3208114 3.9665911e-39
0.22827269 0.34636 1.3326687 3.8747556e-39
0.23492193 0.34819874 1.3397435 3.8747556e-39
0.24040185 0.34826037 1.3399807 3.874757e-39
0.24527586 0.3474609 1.3369046 3.8743969e-39
0.25087893 0.3477065 1.3378496 3.6900042e-39
0.25621808 0.34758365 1.337377 3.7822012e-39
0.26155344 0.3474609 1.3369046 3.7818425e-39
0.26868737 0.34968385 1.3454578 3.6900042e-39
0.27620956 0.35231352 1.3555758 3.5974499e-39
0.28405073 0.35523942 1.3668334 3.4134159e-39
0.29438129 0.36110681 1.3894092 3.3208616e-39
0.3102107 0.37337211 1.4366016 3.1364703e-39
0.31888512 0.37673196 1.4495292 2.8602407e-39
0.32886073 0.38147947 1.4677958 2.6754879e-39
0.3415049 0.3890985 1.4971111 2.4903792e-39
0.34792498 0.3894836 1.4985927 2.2137923e-39
0.35562611 0.39126489 1.5054466 1.9372054e-39
0.3645632 0.39432287 1.5172126 1.845007e-39
0.37005341 0.39361295 1.5144811 1.8450056e-39
0.37687847 0.39432287 1.5172126 2.1215911e-39
0.38334343 0.39463919 1.5184298 2.5832867e-39
0.38934982 0.39448097 1.517821 3.504164e-39
0.39511389 0.39408594 1.516301 4.3342862e-39
0.40296265 0.3957504 1.5227053 8.483084e-39
0.40848532 0.39511466 1.5202591 1.2815909e-38
0.41448888 0.39495605 1.5196489 1.3553475e-38
0.42065641 0.39495605 1.5196489 1.4014453e-38
0.42656708 0.39471838 1.5187343 1.3646032e-38
0.43065754 0.39282712 1.5114576 1.3367646e-38
0.43661749 0.39267033 1.5108542 8.3880045e-39
0.44160366 0.39165428 1.5069448 3.2272184e-39
0.44709671 0.39110935 1.5048481 3.0421083e-39
0.45320415 0.39110935 1.5048481 2.2127091e-39
0.45740238 0.3894836 1.4985927 1.8446455e-39
