# .PCD v0.7 - Point Cloud Data file format
VERSION 0.7
FIELDS x y z rgb
SIZE 4 4 4 4
TYPE F F F F
COUNT 1 1 1 1
WIDTH 1054
HEIGHT 1
VIEWPOINT 0 0 0 1 0 0 0
POINTS 1054
DATA ascii
-1.5503908 -1.2347373 2.8985033 1.9088464e-38
-1.5583149 -1.2505366 2.9355917 1.927106e-38
-1.557878 -1.2598178 2.9573791 1.8436976e-38
-1.5568218 -1.2687387 2.9783206 1.7696525e-38
-1.5545187 -1.276775 2.9971855 1.7696525e-38
-1.5540438 -1.2864515 3.0199006 1.8895432e-38
-1.5510678 -1.2941949 3.0380781 1.8711758e-38
-1.5461832 -1.3004571 3.0527785 1.7696899e-38
-1.5487816 -1.3131652 3.0826104 1.7973474e-38
-1.5488838 -1.3239466 3.107919 1.7975268e-38
-1.5457886 -1.3321494 3.1271751 1.7602896e-38
-1.5510354 -1.3477366 3.1637654 1.6589102e-38
-1.5472472 -1.3556678 3.1823838 1.6681658e-38
-1.5427618 -1.3631165 3.1998694 1.640543e-38
-1.5514135 -1.3823977 3.245131 1.5299442e-38
-1.5442002 -1.3877512 3.2576983 1.3732117e-38
-1.541592 -1.3973716 3.280282 1.4010496e-38
-1.5538625 -1.4207637 3.3351941 1.3456603e-38
-1.5547093 -1.4340302 3.3663366 1.2165863e-38
-1.5527843 -1.4449524 3.3919761 1.2353133e-38
-1.552933 -1.4580171 3.4226451 1.1615575e-38
-1.5432281 -1.4619827 3.4319541 9.7731011e-39
-1.5341676 -1.4666365 3.442879 9.4039542e-39
-1.5341477 -1.4800981 3.4744794 1.0233712e-38
-1.5348384 -1.4945012 3.5082905 9.5883455e-39
-1.5391438 -1.5127269 3.5510745 9.0351731e-39
-1.542823 -1.5306758 3.5932088 9.219563e-39
-1.5653871 -1.5678823 3.6805496 9.3110398e-39
-1.5726206 -1.5903027 3.7331808 9.4039542e-39
-1.5737658 -1.6069425 3.7722425 9.3117572e-39
-1.583707 -1.6329792 3.8333623 8.9415384e-39
-1.5729277 -1.6379552 3.8450437 8.5702363e-39
-1.5676728 -1.6488414 3.8705986 8.6631494e-39
-1.559939 -1.6573144 3.8904886 8.757859e-39
-1.548925 -1.6624401 3.9025211 8.4816322e-39
-1.5354611 -1.6650149 3.9085653 9.124845e-39
-1.5219553 -1.6675977 3.914628 1.0232633e-38
-1.5178399 -1.6806325 3.9452271 1.0601777e-38
-1.502611 -1.6815088 3.947284 1.050994e-38
-1.4983087 -1.6947629 3.9783976 1.0417746e-38
-1.4915679 -1.7055176 4.003644 1.0509583e-38
-1.4621741 -1.6903217 3.967972 1.0233715e-38
-1.4637142 -1.7109463 4.0163875 1.0417746e-38
-1.4535828 -1.7182386 4.0335059 1.0417387e-38
-1.4503485 -1.7339429 4.0703712 1.0233716e-38
-1.6094879 -1.9463692 4.5690351 1.0233355e-38
-1.6333301 -1.9982241 4.6907625 9.9567651e-39
-1.6907645 -2.0928836 4.9129725 9.9567637e-39
-1.6541059 -2.096966 4.9225559 9.9567721e-39
0.9238891 -1.1249158 2.6407013 1.4355475e-38
0.9207961 -1.1082934 2.6016808 1.1962358e-38
0.92059898 -1.0954938 2.5716341 1.2883953e-38
0.92662948 -1.0903089 2.5594628 8.558691e-39
0.93134969 -1.0837144 2.543982 5.1525072e-39
0.94041049 -1.0822597 2.5405674 5.3376173e-39
0.94976532 -1.0811713 2.5380123 4.2327131e-39
0.95526236 -1.0757618 2.5253139 5.1532275e-39
0.96198183 -1.0718291 2.516082 5.7971549e-39
0.96418256 -1.0629973 2.4953496 6.1652158e-39
0.97238702 -1.0608993 2.4904246 5.9808259e-39
0.98281777 -1.0612484 2.4912441 6.2570527e-39
0.99032158 -1.058462 2.4847033 8.2821083e-39
1.0000776 -1.0581148 2.4838881 8.09808e-39
1.0101585 -1.0581148 2.4838881 4.6000565e-39
1.0202395 -1.0581148 2.4838881 3.6806239e-39
1.0262799 -1.0539653 2.4741473 3.8646579e-39
1.0295919 -1.0471214 2.4580815 4.2327173e-39
1.0422753 -1.0498482 2.4644828 4.3249115e-39
1.0447953 -1.0423832 2.4469588 4.1405217e-39
1.0667942 -1.0543098 2.474956 3.8642935e-39
1.0796623 -1.0570743 2.4814458 3.7724552e-39
1.0794729 -1.0471214 2.4580815 3.7724566e-39
1.0962114 -1.0536209 2.4733391 4.048682e-39
1.1113324 -1.058462 2.4847033 5.0606731e-39
1.1232598 -1.0602018 2.4887872 5.8889932e-39
1.1303879 -1.057421 2.4822593 5.7049635e-39
1.1464765 -1.0629973 2.4953496 5.0606745e-39
1.1497825 -1.056728 2.4806325 4.7844505e-39
1.1448457 -1.0430574 2.4485416 4.6007796e-39
1.1577787 -1.0457633 2.4548934 4.2327159e-39
1.1700183 -1.0478017 2.4596786 4.5085811e-39
1.1708714 -1.0396949 2.4406483 4.2327173e-39
1.1938623 -1.051217 2.4676957 3.7721035e-39
1.205056 -1.052246 2.4701111 3.7724622e-39
1.2146846 -1.0519028 2.4693055 3.8646536e-39
1.2279103 -1.0546546 2.4757655 3.9564877e-39
1.2420198 -1.0581148 2.4838881 4.1401587e-39
1.243533 -1.0508745 2.4668918 4.4160254e-39
1.2667532 -1.0619472 2.4928846 4.5082196e-39
1.2701789 -1.0563818 2.47982 4.508221e-39
1.2710838 -1.048824 2.4620783 4.5082224e-39
1.2924244 -1.0581148 2.4838881 4.2323558e-39
1.308947 -1.0633478 2.4961724 3.7720993e-39
1.3125863 -1.0581148 2.4838881 3.2207262e-39
1.3213667 -1.0570743 2.4814458 3.0366964e-39
1.3314376 -1.0570743 2.4814458 3.4051188e-39
1.3366894 -1.0532769 2.4725313 4.1412419e-39
1.3423404 -1.0498482 2.4644828 5.7074802e-39
1.349268 -1.0474614 2.4588797 9.2091009e-39
-1.5464034 -1.0521762 2.4937057 1.816112e-38
-1.5383095 -1.0535643 2.4969957 1.8066399e-38
-1.5347557 -1.0581011 2.5077479 1.7697967e-38
-1.5276139 -1.0602081 2.5127418 1.8161464e-38
-1.5280662 -1.0676495 2.5303779 1.8625326e-38
-1.5233973 -1.0715891 2.5397151 1.8534573e-38
-1.5289901 -1.0828499 2.5664036 1.8811885e-38
-1.5227036 -1.0857944 2.5733824 1.8627496e-38
-1.530467 -1.0988673 2.6043656 1.8443457e-38
-1.537884 -1.1118716 2.6351864 1.8351262e-38
-1.5443908 -1.1243954 2.6648684 1.7523662e-38
-1.5460922 -1.1335725 2.6866183 1.6786817e-38
-1.5522645 -1.1461812 2.716502 1.7706974e-38
-1.5479043 -1.1511377 2.7282488 1.7708053e-38
-1.5479882 -1.1594944 2.7480547 1.6327637e-38
-1.5418721 -1.1632947 2.7570615 1.7154521e-38
-1.5402178 -1.1705413 2.7742362 1.7892088e-38
-1.5436654 -1.1818006 2.8009214 1.8077919e-38
-1.5419959 -1.1892804 2.8186488 1.6881536e-38
-1.5385756 -1.1955117 2.8334172 1.5775183e-38
-1.545001 -1.2095445 2.8666759 1.789208e-38
-1.5492047 -1.2220379 2.8962858 1.9089184e-38
-1.5565044 -1.2371832 2.9321809 1.927214e-38
-1.557878 -1.2478153 2.9573791 1.9178143e-38
-1.5549866 -1.2551697 2.9748096 1.9175619e-38
-1.5539036 -1.2641104 2.9959996 1.8803951e-38
-1.5521864 -1.2726722 3.0162911 1.8158582e-38
-1.5548114 -1.2849586 3.0454106 1.8898309e-38
-1.54556 -1.2875482 3.051548 1.8991945e-38
-1.5487816 -1.3006544 3.0826104 1.8251858e-38
-1.5507936 -1.3129499 3.1117513 1.7515002e-38
-1.5483469 -1.3216413 3.1323504 1.7790515e-38
-1.5490934 -1.333225 3.1598041 1.8802872e-38
-1.5459476 -1.3416241 3.1797106 1.7419583e-38
-1.540158 -1.3478512 3.1944687 1.6221395e-38
-1.5480957 -1.366299 3.2381911 1.6315388e-38
-1.5442002 -1.3745297 3.2576983 1.5854773e-38
-1.5409244 -1.3834591 3.2788613 1.4469682e-38
-1.5538625 -1.4072278 3.3351941 1.382467e-38
-1.5560931 -1.4216321 3.3693328 1.3550961e-38
-1.5548742 -1.4331123 3.3965414 1.2999231e-38
-1.5543383 -1.4454331 3.4257424 1.2168748e-38
-1.547437 -1.4520032 3.441314 1.0603218e-38
-1.5397693 -1.4579676 3.4554498 9.219563e-39
-1.5369692 -1.4686929 3.4808693 9.1280848e-39
-1.5348384 -1.4802628 3.5082905 1.00504e-38
-1.5355426 -1.4948092 3.5427659 9.7730969e-39
-1.5355351 -1.508931 3.5762355 9.1273688e-39
-1.5495675 -1.5372508 3.6433547 9.0333739e-39
-1.5679816 -1.570505 3.7221684 9.0340913e-39
-1.5706354 -1.588467 3.7647393 9.4035927e-39
-1.586921 -1.6207038 3.8411419 9.2192029e-39
-1.5769321 -1.6264802 3.8548324 8.2950886e-39
-1.5716904 -1.6373179 3.8805182 8.9386573e-39
-1.5647635 -1.6466016 3.9025211 9.0330053e-39
-1.5569506 -1.6551332 3.9227414 8.6663794e-39
-1.5442306 -1.6585706 3.9308882 9.1262842e-39
-1.5298656 -1.6602948 3.9349744 1.0509221e-38
-1.5233968 -1.670715 3.959671 1.0601777e-38
-1.5081152 -1.6715893 3.9617429 1.0417745e-38
-1.4990964 -1.679499 3.9804893 1.060178e-38
-1.492357 -1.6901625 4.0057621 1.0510299e-38
-1.4591151 -1.670715 3.959671 1.0234071e-38
-1.4613885 -1.6919529 4.0100055 1.0234074e-38
-1.4559097 -1.7045929 4.0399632 1.0325192e-38
-1.7152523 -2.1029673 4.984128 1.0140798e-38
-1.6455464 -2.0662401 4.8970833 9.9564106e-39
0.9274475 -1.1184899 2.6508722 1.2423698e-38
0.92524749 -1.1030412 2.6142578 9.2026213e-39
0.92405158 -1.0891262 2.5812788 8.3750242e-39
0.92819846 -1.0817498 2.5637965 5.0606717e-39
0.93228948 -1.0744727 2.5465493 4.4167442e-39
0.94104207 -1.0726686 2.5422735 4.5093e-39
0.95040256 -1.0715891 2.5397151 4.1405189e-39
0.95621926 -1.0665801 2.5278432 4.9691963e-39
0.96230161 -1.0619705 2.5169184 5.5209282e-39
0.9648186 -1.0535643 2.4969957 5.8889904e-39
0.97238702 -1.0507919 2.4904246 5.6131266e-39
0.98443747 -1.0528698 2.4953496 6.073023e-39
0.9912976 -1.0494111 2.4871521 8.7416473e-39
1.0010629 -1.0490664 2.4863353 7.5445475e-39
1.0111538 -1.0490664 2.4863353 4.2319942e-39
1.0209093 -1.048722 2.4855189 3.7720993e-39
1.0259446 -1.0435828 2.4733391 3.7724608e-39
1.0299263 -1.037482 2.4588797 4.1405203e-39
1.0412585 -1.0388316 2.4620783 4.2327159e-39
1.0444577 -1.0321186 2.4461682 3.8642963e-39
1.0695913 -1.0470033 2.4814458 3.772458e-39
1.0778959 -1.0452902 2.4773858 3.6802624e-39
1.0777234 -1.0354642 2.4540975 3.772458e-39
1.0951381 -1.0425611 2.4709175 3.9564877e-39
1.1109678 -1.0480338 2.4838881 5.0606745e-39
1.1232598 -1.0501009 2.4887872 5.7964417e-39
1.1307586 -1.0476902 2.4830735 5.2447084e-39
1.1464765 -1.0528698 2.4953496 4.6004194e-39
1.1516693 -1.0483778 2.4847033 4.3245542e-39
1.1459576 -1.0341234 2.4509196 4.1401629e-39
1.1600356 -1.037819 2.4596786 4.0483246e-39
1.1715407 -1.0391695 2.4628792 4.3249087e-39
1.1731405 -1.0317852 2.4453781 4.2327173e-39
1.20288 -1.0490664 2.4863353 3.9561332e-39
1.2121747 -1.0483778 2.4847033 3.772458e-39
1.2202566 -1.0466603 2.4806325 3.9564877e-39
1.2351809 -1.0507919 2.4904246 4.0486834e-39
1.2461081 -1.0514836 2.492064 4.1405189e-39
1.2407032 -1.0384939 2.461278 4.3241899e-39
1.2696798 -1.0542598 2.4986439 4.508221e-39
1.2739344 -1.0494111 2.4871521 4.5082224e-39
1.273984 -1.0412018 2.4676957 4.5085825e-39
1.2877769 -1.0442652 2.474956 4.3241941e-39
1.3093787 -1.0535643 2.4969957 3.7721007e-39
1.310866 -1.0466603 2.4806325 3.1288907e-39
1.3248404 -1.0497559 2.4879694 3.0366964e-39
1.3349379 -1.0497559 2.4879694 3.4044014e-39
1.3384378 -1.0446067 2.4757655 3.8650152e-39
1.3445287 -1.0415413 2.4685004 4.8784412e-39
1.3514626 -1.0391695 2.4628792 7.6424997e-39
-1.5398101 -1.0376124 2.4830735 1.8160752e-38
-1.5322452 -1.0393169 2.4871521 1.834227e-38
-1.530194 -1.0448086 2.5002942 1.7418506e-38
-1.5250831 -1.0482706 2.5085788 1.7141913e-38
-1.5265356 -1.0563207 2.5278432 1.8435896e-38
-1.521356 -1.0598594 2.5363119 1.8440572e-38
-1.5279542 -1.0717075 2.5646648 1.8811161e-38
-1.5268556 -1.0782824 2.580399 1.8811885e-38
-1.5315206 -1.0890466 2.6061587 1.8351262e-38
-1.5394915 -1.1023277 2.6379411 1.816687e-38
-1.5433043 -1.1127965 2.6629937 1.779917e-38
-1.5433537 -1.1206803 2.68186 1.6602427e-38
-1.5472678 -1.1315023 2.7077577 1.7154881e-38
-1.5423462 -1.1359714 2.7184527 1.8075401e-38
-1.5396056 -1.1421229 2.7331736 1.77077e-38
-1.5340511 -1.1462611 2.7430763 1.844382e-38
-1.5301253 -1.1516856 2.7560577 1.8075395e-38
-1.5345817 -1.1635456 2.7844393 1.8259785e-38
-1.5334324 -1.1712997 2.8029954 1.9089191e-38
-1.5316968 -1.1787184 2.8207493 1.8629652e-38
-1.5385926 -1.1929413 2.8547854 1.8905157e-38
-1.543889 -1.2061305 2.886348 1.9733483e-38
-1.5510978 -1.2210268 2.9219956 1.9364702e-38
-1.5542352 -1.232923 2.950464 1.9549087e-38
-1.5519377 -1.240659 2.9689767 1.9824956e-38
-1.5545187 -1.2524468 2.9971855 2.0006468e-38
-1.5534241 -1.2614356 3.0186965 1.9080188e-38
-1.5579448 -1.2751634 3.051548 1.8893994e-38
-1.5493069 -1.2782547 3.0589457 1.9357848e-38
-1.5500439 -1.2891934 3.0851226 1.9266731e-38
-1.5495199 -1.2992527 3.1091955 1.8989063e-38
-1.5457886 -1.306766 3.1271751 1.8620993e-38
-1.5484471 -1.31985 3.1584859 1.8067821e-38
-1.5440022 -1.3270472 3.1757092 1.7698321e-38
-1.5362687 -1.3315153 3.1864018 1.7422819e-38
-1.5408462 -1.3468201 3.2230272 1.6870367e-38
-1.5402237 -1.3578027 3.2493093 1.677997e-38
-1.5382596 -1.3677824 3.273191 1.5856575e-38
-1.5504473 -1.3906288 3.3278642 1.3918665e-38
-1.5554008 -1.4073312 3.3678341 1.3920821e-38
-1.5541769 -1.4186908 3.3950183 1.3552765e-38
-1.5543383 -1.4315296 3.4257424 1.2537175e-38
-1.5488449 -1.4393451 3.4444454 1.1616286e-38
-1.5418805 -1.4459234 3.4601877 1.0142233e-38
-1.5433555 -1.4606097 3.4953327 9.0355305e-39
-1.5398332 -1.4707952 3.5197074 8.9436922e-39
-1.5369811 -1.4818176 3.5460846 9.7734542e-39
-1.5311954 -1.4901934 3.5661285 9.5894231e-39
-1.5406705 -1.5137227 3.6224358 8.8507777e-39
-1.5549852 -1.5425063 3.6913168 8.4823553e-39
-1.5644121 -1.5669541 3.7498221 8.8507791e-39
-1.5861163 -1.6043005 3.8391941 9.1270086e-39
-1.5769321 -1.6108353 3.8548324 9.0344529e-39
-1.5741109 -1.624066 3.8864942 9.0330123e-39
-1.5671871 -1.6332889 3.9085653 8.8475435e-39
-1.5593745 -1.6417646 3.9288483 8.7575002e-39
-1.5490563 -1.6477503 3.9431722 9.1262814e-39
-1.5346514 -1.6494684 3.947284 1.050958e-38
-1.5273911 -1.658983 3.970053 1.0694334e-38
-1.5104864 -1.6581135 3.967972 1.0510305e-38
-1.5022557 -1.6668496 3.9888783 1.0510303e-38
-1.4939378 -1.6756783 4.0100055 1.0418106e-38
-1.4553094 -1.6503289 3.9493432 1.0233715e-38
-1.462163 -1.6765662 4.0121307 1.014224e-38
-1.4559097 -1.6881967 4.0399632 1.0234076e-38
-1.6242728 -1.9492794 4.6647511 9.8649352e-39
-1.6498151 -2.0516734 4.9097867 9.9564092e-39
0.9300527 -1.1108428 2.6583183 9.2011822e-39
0.93103427 -1.0992635 2.6306083 6.9024193e-39
0.92721289 -1.0823402 2.5901098 5.6134853e-39
0.93040395 -1.0738902 2.5698884 3.9557703e-39
0.93323117 -1.0652122 2.5491214 4.0486862e-39
0.94199103 -1.063422 2.5448372 4.1408804e-39
0.95135999 -1.0623507 2.5422735 4.140879e-39
0.95749801 -1.0577333 2.531224 4.6007767e-39
0.96262163 -1.0521052 2.5177555 5.0606731e-39
0.96513689 -1.0437745 2.4978194 5.4290955e-39
0.97366816 -1.0420555 2.4937057 5.245063e-39
0.98606247 -1.0444636 2.4994688 5.8893506e-39
0.9912976 -1.0393169 2.4871521 9.1100697e-39
1.0017209 -1.0396584 2.4879694 6.808423e-39
1.0124838 -1.0403421 2.4896057 4.0479645e-39
1.0215801 -1.0393169 2.4871521 3.5880696e-39
1.0262799 -1.0338825 2.4741473 3.4965928e-39
1.0305958 -1.0281705 2.4604781 4.0486848e-39
1.0415972 -1.0291739 2.4628792 4.0486848e-39
1.0461477 -1.0238448 2.4501264 3.9564891e-39
1.0720509 -1.0393169 2.4871521 3.956129e-39
1.0782487 -1.0355747 2.4781966 3.863932e-39
1.0784224 -1.0261694 2.4556894 3.7724566e-39
1.0940669 -1.0315229 2.4685004 4.0479631e-39
1.1084222 -1.0355747 2.4781966 4.876642e-39
1.120681 -1.0376124 2.4830735 5.2443469e-39
1.1281686 -1.0352358 2.4773858 4.9681215e-39
1.1434615 -1.0400002 2.4887872 4.4160282e-39
1.1505365 -1.0372723 2.4822593 3.9561304e-39
1.1433666 -1.0218606 2.4453781 3.9561318e-39
1.1592823 -1.027169 2.4580815 4.0483246e-39
1.1734494 -1.0308506 2.4668918 4.4163855e-39
1.1773235 -1.0255042 2.4540975 4.3238325e-39
1.2088349 -1.044119 2.4986439 4.0479659e-39
1.2193781 -1.0444636 2.4994688 4.0479659e-39
1.227496 -1.0427424 2.4953496 3.9564877e-39
1.2429492 -1.0472295 2.5060875 3.9568479e-39
1.2518771 -1.0461906 2.5036016 4.0486848e-39
1.246783 -1.0335448 2.4733391 4.2323558e-39
1.270938 -1.0451537 2.5011201 4.4163855e-39
1.2772913 -1.0420555 2.4937057 4.5085825e-39
1.2810825 -1.0369323 2.4814458 4.6004194e-39
1.287356 -1.0338825 2.4741473 4.2323572e-39
1.3098108 -1.0437745 2.4978194 3.4044e-39
1.3121557 -1.0376124 2.4830735 3.0363405e-39
1.325276 -1.0400002 2.4887872 2.9445022e-39
1.3349379 -1.0396584 2.4879694 3.3129218e-39
1.3362529 -1.0328699 2.471724 3.7728196e-39
1.3445287 -1.0315229 2.4685004 4.5096615e-39
1.3514626 -1.0291739 2.4628792 6.4446823e-39
-1.5388006 -1.0268613 2.4814458 1.7423899e-38
-1.531239 -1.0285469 2.4855189 1.7884882e-38
-1.529184 -1.0339781 2.4986439 1.7699771e-38
-1.5255886 -1.0384334 2.5094104 1.7695447e-38
-1.5255169 -1.0453633 2.5261564 1.7141557e-38
-1.521356 -1.0495658 2.5363119 1.733062e-38
-1.5238246 -1.0584303 2.5577333 1.8072866e-38
-1.5273762 -1.0681738 2.5812788 1.8534934e-38
-1.5262667 -1.0747697 2.597218 1.8534937e-38
-1.5346791 -1.088209 2.6296947 1.816544e-38
-1.537895 -1.0981262 2.6536596 1.7797378e-38
-1.536821 -1.1050984 2.6705081 1.6876502e-38
-1.5412045 -1.1161218 2.6971467 1.6601347e-38
-1.5362784 -1.1205128 2.7077577 1.6601704e-38
-1.5335158 -1.1265565 2.7223628 1.6694624e-38
-1.5323855 -1.1338958 2.740098 1.8259791e-38
-1.5279005 -1.1388417 2.7520504 1.8167232e-38
-1.5334537 -1.1513979 2.7823927 1.7983198e-38
-1.5317311 -1.1586368 2.7998857 1.8627127e-38
-1.5294175 -1.1655334 2.8165517 1.8904434e-38
-1.5380126 -1.1809099 2.8537092 1.9089183e-38
-1.5397798 -1.1912372 2.8786657 1.9272862e-38
-1.5451343 -1.2045189 2.9107616 1.9272142e-38
-1.5434085 -1.2124435 2.9299114 1.9272142e-38
-1.54166 -1.2204728 2.9493146 1.9272502e-38
-1.5459505 -1.2334464 2.9806657 1.9272145e-38
-1.5466406 -1.2437292 3.0055144 1.9454735e-38
-1.5523137 -1.2582144 3.0405183 1.9176343e-38
-1.5449373 -1.2622699 3.0503187 1.8160388e-38
-1.5500439 -1.2766722 3.0851226 1.8067105e-38
-1.5520695 -1.288751 3.1143112 1.7974549e-38
-1.5470667 -1.2951442 3.1297605 1.8989424e-38
-1.5516839 -1.3097633 3.1650882 1.8436969e-38
-1.5531229 -1.3219215 3.1944687 1.7697601e-38
-1.5434141 -1.3247162 3.2012224 1.7054754e-38
-1.5474339 -1.3394415 3.2368066 1.7333506e-38
-1.5461961 -1.3498293 3.261909 1.6689573e-38
-1.5489745 -1.3639328 3.2959907 1.604384e-38
-1.5600477 -1.3856497 3.34847 1.5396316e-38
-1.5595634 -1.3973924 3.376847 1.4382884e-38
-1.5583699 -1.4087023 3.4041774 1.3921543e-38
-1.5571568 -1.4201967 3.4319541 1.290595e-38
-1.5523763 -1.4286155 3.4522986 1.1984351e-38
-1.5475388 -1.4371347 3.4728856 1.0971636e-38
-1.5469264 -1.4497703 3.5034201 1.0602859e-38
-1.5470253 -1.4633133 3.5361471 9.2199245e-39
-1.5434875 -1.4736377 3.5610964 8.4823553e-39
-1.5348102 -1.4792038 3.5745471 9.5883413e-39
-1.5384622 -1.4968723 3.6172435 9.4043074e-39
-1.5481915 -1.5208514 3.6751897 8.6671039e-39
-1.5551689 -1.5425671 3.7276666 8.2057684e-39
-1.5861163 -1.588719 3.8391941 8.5741936e-39
-1.5729277 -1.5911396 3.8450437 9.0358878e-39
-1.5749193 -1.6091186 3.8884904 9.2195602e-39
-1.5712429 -1.6216117 3.9186804 8.8500616e-39
-1.5634311 -1.6300488 3.939069 8.8515007e-39
-1.5531008 -1.6360072 3.9534678 9.0348074e-39
-1.5410793 -1.6402899 3.9638171 1.0417745e-38
-1.5330182 -1.648923 3.9846795 1.0602499e-38
-1.5176451 -1.6497914 3.9867775 1.0510663e-38
-1.504634 -1.6532738 3.995193 1.0510302e-38
-1.4994974 -1.6655788 4.0249286 1.0510302e-38
-1.4537927 -1.6325971 3.9452271 1.0325552e-38
-1.4629382 -1.6611632 4.0142579 1.0234794e-38
-1.4574652 -1.6735865 4.0442791 1.0142598e-38
-1.6445383 -1.9544315 4.7229514 9.8652925e-39
-1.673694 -2.0611539 4.9808493 9.956405e-39
0.92453402 -1.0935266 2.6425447 7.7274996e-39
0.93038774 -1.0878311 2.6287816 4.9688362e-39
0.92880172 -1.0736648 2.594548 4.3252703e-39
0.92977273 -1.0627388 2.5681448 3.5884283e-39
0.93354553 -1.0552219 2.5499802 3.6809827e-39
0.94199103 -1.0530937 2.5448372 3.9568479e-39
0.95072144 -1.0513268 2.5405674 4.1405189e-39
0.95590007 -1.0457122 2.5269995 4.6011341e-39
0.96230161 -1.0415405 2.5169184 4.7848079e-39
0.96418256 -1.0326149 2.4953496 4.8770021e-39
0.9749527 -1.0332961 2.4969957 4.876642e-39
0.98638815 -1.0346611 2.5002942 6.073739e-39
0.99194932 -1.0298994 2.4887872 9.202264e-39
1.0023797 -1.030238 2.4896057 6.071581e-39
1.0128168 -1.0305769 2.4904246 3.8639334e-39
1.0209093 -1.0285469 2.4855189 3.4962341e-39
1.0256096 -1.0231724 2.4725313 3.6802652e-39
1.0289237 -1.0165327 2.4564862 3.9561304e-39
1.0415972 -1.0191782 2.4628792 4.0486834e-39
1.0464864 -1.0142292 2.4509196 3.956129e-39
1.0745219 -1.031595 2.4928846 3.956129e-39
1.0782487 -1.0255167 2.4781966 3.9561276e-39
1.0805253 -1.0181845 2.4604781 3.9561276e-39
1.0958534 -1.0231724 2.4725313 4.0479645e-39
1.1098753 -1.0268613 2.4814458 4.6922535e-39
1.1225219 -1.0292227 2.4871521 5.244707e-39
1.1292771 -1.0261886 2.47982 4.6000593e-39
1.1434615 -1.0298994 2.4887872 4.0479659e-39
1.1509138 -1.0275348 2.4830735 3.7724594e-39
1.1426284 -1.0112827 2.4437995 3.7724594e-39
1.1596589 -1.0175232 2.4588797 3.8642935e-39
1.1734494 -1.0208386 2.4668918 4.32455e-39
1.178852 -1.0168626 2.4572835 4.3241899e-39
1.2132394 -1.0377456 2.5077479 4.2323544e-39
1.2242281 -1.0384334 2.5094104 4.0479659e-39
1.2323703 -1.0367154 2.5052583 3.9561304e-39
1.245836 -1.0394671 2.5119081 4.0486862e-39
1.2535352 -1.0374019 2.5069175 4.0486848e-39
1.2492317 -1.0255167 2.4781966 4.2323544e-39
1.270938 -1.0350029 2.5011201 4.5085811e-39
1.280243 -1.0343195 2.4994688 4.6007767e-39
1.2869881 -1.031595 2.4928846 4.6007782e-39
1.2898853 -1.0258526 2.4790082 3.9568507e-39
1.3085155 -1.0326149 2.4953496 3.128176e-39
1.3151752 -1.0298994 2.4887872 2.7601138e-39
1.3270209 -1.0312554 2.492064 2.8526653e-39
1.3353767 -1.0298994 2.4887872 3.2207262e-39
1.3332062 -1.0205061 2.4660883 3.5887884e-39
1.3432149 -1.0205061 2.4660883 4.0494064e-39
1.350145 -1.0181845 2.4604781 5.3394194e-39
-1.5413265 -1.0184593 2.4855189 1.7056559e-38
-1.5332525 -1.0197985 2.4887872 1.6965083e-38
-1.5312054 -1.0251907 2.5019467 1.7242389e-38
-1.5291364 -1.0306402 2.5152462 1.7424261e-38
-1.5270455 -1.0361481 2.5286877 1.6776372e-38
-1.524932 -1.0417149 2.5422735 1.6869646e-38
-1.5258867 -1.0494679 2.5611944 1.7518975e-38
-1.5299844 -1.0595038 2.5856867 1.7889199e-38
-1.5299407 -1.0667906 2.6034701 1.7797368e-38
-1.5362798 -1.0786604 2.6324377 1.7612979e-38
-1.5384341 -1.0877374 2.6545901 1.6875777e-38
-1.5346557 -1.0927182 2.6667457 1.6322962e-38
-1.5379171 -1.102818 2.6913939 1.6692461e-38
-1.5329887 -1.1071475 2.7019596 1.6324396e-38
-1.5280213 -1.111511 2.7126086 1.5404599e-38
-1.529065 -1.120342 2.7341607 1.6785737e-38
-1.5234702 -1.1244028 2.7440705 1.7244914e-38
-1.5278387 -1.1359309 2.7722046 1.7154155e-38
-1.5260873 -1.1430461 2.7895691 1.7521857e-38
-1.5248792 -1.1506777 2.8081939 1.7521137e-38
-1.5322372 -1.164937 2.8429933 1.7613691e-38
-1.5374415 -1.1777627 2.874294 1.798176e-38
-1.5451343 -1.1927055 2.9107616 1.8073959e-38
-1.5380516 -1.1963854 2.9197419 1.8166512e-38
-1.5356776 -1.2038134 2.93787 1.7982122e-38
-1.5447342 -1.2203883 2.9783206 1.8165431e-38
-1.5472548 -1.2320203 3.0067079 1.8165427e-38
-1.5523137 -1.2458744 3.0405183 1.8073233e-38
-1.5461832 -1.250898 3.0527785 1.7886322e-38
-1.5557495 -1.2688046 3.0964789 1.7238066e-38
-1.5597689 -1.282442 3.1297605 1.6405417e-38
-1.5541339 -1.2883003 3.1440575 1.6313593e-38
-1.5529823 -1.298003 3.1677368 1.7146235e-38
-1.5518132 -1.307853 3.1917751 1.6684527e-38
-1.546029 -1.3139462 3.2066457 1.5947679e-38
-1.5507488 -1.3291461 3.2437408 1.6134595e-38
-1.5475296 -1.3377435 3.2647221 1.585945e-38
-1.5489745 -1.350556 3.2959907 1.5121887e-38
-1.5641986 -1.3757105 3.3573794 1.4660551e-38
-1.5630492 -1.3867801 3.3843946 1.4199212e-38
-1.5604748 -1.3967705 3.4087756 1.3738225e-38
-1.5585698 -1.4075441 3.4350684 1.2814469e-38
-1.5566353 -1.4184852 3.4617698 1.2261659e-38
-1.5503836 -1.4256558 3.4792697 1.134114e-38
-1.5483594 -1.4368815 3.5066655 1.1063477e-38
-1.549921 -1.4516739 3.5427659 1.0786175e-38
-1.5456687 -1.4612468 3.5661285 9.311044e-39
-1.5362608 -1.4660809 3.5779257 8.4819951e-39
-1.5340644 -1.4779549 3.6069036 9.3110355e-39
-1.5451912 -1.5030171 3.6680672 9.4961457e-39
-1.5460342 -1.5184666 3.7057712 8.6667451e-39
-1.5829055 -1.569953 3.8314226 8.3905184e-39
-1.5665628 -1.5691589 3.8294845 8.9440523e-39
-1.5684747 -1.5868169 3.8725784 9.1277233e-39
-1.5679965 -1.6023901 3.910584 8.9433348e-39
-1.5609946 -1.6115465 3.9329302 8.4830797e-39
-1.5506716 -1.6174282 3.947284 8.9426146e-39
-1.5386626 -1.6216556 3.9576011 1.0693613e-38
-1.5306015 -1.6301771 3.9783976 1.0694694e-38
-1.5168463 -1.6327511 3.9846795 1.0602859e-38
-1.499885 -1.6318922 3.9825833 1.060214e-38
-1.492357 -1.6413901 4.0057621 1.0418106e-38
-1.4262924 -1.5860057 3.8705986 1.0325911e-38
-1.4575285 -1.6387888 3.999414 1.0509583e-38
-1.4420586 -1.639655 4.0015278 1.0233355e-38
-1.6579841 -1.9510863 4.7615666 9.957484e-39
0.92872059 -1.1004708 2.6856654 8.9249554e-39
0.92485684 -1.0831798 2.6434674 6.6240401e-39
0.93525887 -1.0828018 2.6425447 4.2327159e-39
0.93007666 -1.064594 2.5981095 3.4047559e-39
0.92819846 -1.0505341 2.5637965 3.3125617e-39
0.93480492 -1.0462823 2.5534201 3.2207248e-39
0.9429419 -1.043818 2.547406 3.9568479e-39
0.95104063 -1.0413653 2.5414202 4.1408776e-39
0.95526236 -1.0347656 2.5253139 4.3245472e-39
0.96134281 -1.030298 2.5144107 4.6004166e-39
0.96513689 -1.0234996 2.4978194 4.6004166e-39
0.9749527 -1.023162 2.4969957 4.876642e-39
0.98638815 -1.0245136 2.5002942 6.6254737e-39
0.99227554 -1.0201339 2.4896057 9.0175154e-39
1.0030394 -1.0208052 2.4912441 5.5187688e-39
1.0138173 -1.0214775 2.4928846 3.8639362e-39
1.0205743 -1.0181251 2.4847033 3.6799065e-39
1.0252748 -1.0128068 2.471724 3.6799051e-39
1.0262599 -1.003957 2.4501264 3.8642935e-39
1.0402436 -1.007871 2.4596786 4.1401601e-39
1.045133 -1.0029832 2.4477501 3.956129e-39
1.0734615 -1.0204694 2.4904246 3.8639348e-39
1.0768387 -1.0141312 2.474956 3.680261e-39
1.0784224 -1.0062366 2.4556894 3.6802624e-39
1.0929978 -1.0104975 2.4660883 3.7720993e-39
1.1073347 -1.0144628 2.4757655 4.4167456e-39
1.1195794 -1.0164571 2.4806325 4.9684817e-39
1.1270621 -1.0141312 2.474956 4.1398028e-39
1.1412106 -1.017791 2.4838881 3.8642949e-39
1.1505365 -1.0171237 2.4822593 3.7724594e-39
1.1411551 -1.0000732 2.4406483 3.6802638e-39
1.1604127 -1.0081986 2.4604781 3.7720993e-39
1.1715407 -1.0091826 2.4628792 4.2327145e-39
1.1773235 -1.0055841 2.4540975 4.2327131e-39
1.2132394 -1.0275677 2.5077479 4.1405189e-39
1.2278911 -1.0313255 2.5169184 4.0483288e-39
1.2376946 -1.0309827 2.516082 3.9564919e-39
1.2479062 -1.0309827 2.516082 4.1405217e-39
1.2568647 -1.0299559 2.513576 4.2327145e-39
1.2570497 -1.021814 2.4937057 4.4167442e-39
1.2747282 -1.0279083 2.5085788 4.5089399e-39
1.2836334 -1.0268875 2.5060875 4.6011369e-39
1.2920935 -1.0255296 2.5027738 4.6007796e-39
1.294548 -1.0194634 2.4879694 3.8646593e-39
1.3085155 -1.0224875 2.4953496 2.8519493e-39
1.3199482 -1.0234996 2.4978194 2.760111e-39
1.3296469 -1.023162 2.4969957 3.0370552e-39
1.3366951 -1.0208052 2.4912441 3.1288921e-39
1.3345102 -1.0114858 2.4685004 3.4969529e-39
1.3449672 -1.0118158 2.4693055 3.7731783e-39
1.3505839 -1.0085263 2.461278 4.5096615e-39
-1.5388006 -1.0067192 2.4814458 1.6873604e-38
-1.5317419 -1.008703 2.4863353 1.6781049e-38
-1.5296888 -1.0140312 2.4994688 1.6688489e-38
-1.5286286 -1.0200932 2.5144107 1.6596651e-38
-1.5265356 -1.0255427 2.5278432 1.6965439e-38
-1.5244201 -1.0310508 2.5414202 1.6873251e-38
-1.5233099 -1.0373186 2.5568695 1.7242753e-38
-1.527897 -1.0475786 2.5821593 1.7151994e-38
-1.5294148 -1.0558612 2.6025751 1.6967246e-38
-1.5346791 -1.0668637 2.6296947 1.6783936e-38
-1.537356 -1.0762089 2.6527297 1.5862703e-38
-1.5319576 -1.0799931 2.6620572 1.5401722e-38
-1.5330124 -1.0884126 2.6828103 1.6046727e-38
-1.526994 -1.091895 2.6913939 1.6047447e-38
-1.5214797 -1.0957904 2.7009957 1.5586831e-38
-1.5230147 -1.1048563 2.7233419 1.6323677e-38
-1.5141406 -1.1064483 2.7272661 1.6598822e-38
-1.515079 -1.1152871 2.7490525 1.6507341e-38
-1.512158 -1.1213949 2.7641077 1.696796e-38
-1.5130932 -1.1304749 2.786489 1.6967603e-38
-1.5265049 -1.1490836 2.8323572 1.6875407e-38
-1.5345286 -1.163888 2.8688483 1.7243834e-38
-1.5439471 -1.1799848 2.908525 1.7428229e-38
-1.5368662 -1.1836226 2.9174917 1.7428948e-38
-1.5338919 -1.1905041 2.9344537 1.733639e-38
-1.5465595 -1.2097285 2.9818397 1.7611895e-38
-1.5491005 -1.2212726 3.0102944 1.7334586e-38
-1.5592017 -1.2390078 3.0540099 1.7058361e-38
-1.5518148 -1.2430192 3.0638976 1.7057286e-38
-1.5563861 -1.2567514 3.0977459 1.7147677e-38
-1.557194 -1.2676436 3.1245937 1.7422093e-38
-1.5528442 -1.2744815 3.1414485 1.6221037e-38
-1.5536324 -1.2856846 3.1690626 1.6129923e-38
-1.5524678 -1.2954452 3.1931214 1.5758256e-38
-1.5479959 -1.3025872 3.2107255 1.5022479e-38
-1.5540781 -1.3188065 3.2507045 1.5856562e-38
-1.5596354 -1.3348546 3.290261 1.5490306e-38
-1.5632665 -1.3495169 3.3264019 1.502969e-38
-1.5718663 -1.3687614 3.3738372 1.447652e-38
-1.5700679 -1.3792099 3.3995917 1.4199932e-38
-1.5647018 -1.3866819 3.4180093 1.3737868e-38
-1.5628244 -1.3974069 3.4444454 1.2906306e-38
-1.5602022 -1.4076538 3.4697025 1.1984713e-38
-1.5532387 -1.4141346 3.4856772 1.0603937e-38
-1.5483594 -1.4226496 3.5066655 1.0879446e-38
-1.5477482 -1.4352806 3.5377994 1.0695056e-38
-1.5427619 -1.4440529 3.559422 1.0601781e-38
-1.5326393 -1.4481379 3.5694911 9.6801782e-39
-1.5282398 -1.4577601 3.5932088 8.2972438e-39
-1.533305 -1.4766829 3.6398513 9.1270058e-39
-1.5332757 -1.4910196 3.6751897 9.4039514e-39
-1.5725597 -1.5442436 3.8063805 9.0351675e-39
-1.556329 -1.5434676 3.8044677 9.1277247e-39
-1.5604926 -1.5631046 3.8528707 9.2195616e-39
-1.559939 -1.5783662 3.8904886 8.9433348e-39
-1.5545342 -1.5889812 3.9166532 8.4834399e-39
-1.5442306 -1.5947562 3.9308882 8.5745537e-39
-1.5338516 -1.6005734 3.9452271 1.0785811e-38
-1.524992 -1.6081154 3.9638171 1.0970924e-38
-1.5104864 -1.6098011 3.967972 1.0694334e-38
-1.4943823 -1.6098011 3.967972 1.0510298e-38
-1.4837216 -1.6157289 3.9825833 1.0417745e-38
-1.4147202 -1.557556 3.8391941 1.0417746e-38
-1.44607 -1.6098011 3.967972 1.0417386e-38
-1.4158665 -1.5939287 3.9288483 1.032519e-38
-1.2718756 -1.4481379 3.5694911 1.0418103e-38
-1.4882374 -1.714007 4.2248273 1.0325552e-38
-1.6262769 -1.8948183 4.6705065 1.0049682e-38
0.92250293 -1.0822765 2.6676853 7.4523519e-39
0.92356694 -1.0709555 2.6397805 5.0603158e-39
0.93689394 -1.0739512 2.6471646 3.6806239e-39
0.92657894 -1.0500857 2.5883386 3.2203674e-39
0.92694283 -1.0387218 2.5603282 3.1285319e-39
0.93448979 -1.0355699 2.5525594 3.036695e-39
0.94230777 -1.0327843 2.5456929 3.8650124e-39
0.95072144 -1.0307049 2.5405674 4.3249101e-39
0.95462555 -1.0238335 2.5236301 4.32455e-39
0.96038598 -1.0190778 2.5119081 4.3249073e-39
0.96673161 -1.0150365 2.5019467 4.4167442e-39
0.9749527 -1.0130279 2.4969957 4.9684775e-39
0.98606247 -1.0140312 2.4994688 6.9020606e-39
0.99227554 -1.0100298 2.4896057 8.3732306e-39
1.0030394 -1.0106945 2.4912441 5.1510695e-39
1.0134836 -1.0110271 2.492064 3.7721007e-39
1.0189023 -1.0063894 2.4806325 3.5880696e-39
1.0232702 -1.0008148 2.4668918 3.5884269e-39
1.0232795 -0.99112636 2.4430108 3.8646522e-39
1.0372108 -0.99497908 2.4525075 4.1401601e-39
1.0437832 -0.99176639 2.4445887 4.0479659e-39
1.069942 -1.0070493 2.4822593 3.8642935e-39
1.0719329 -0.99951202 2.4636807 3.772458e-39
1.0756314 -0.9936915 2.4493339 3.5884269e-39
1.0887421 -0.9965933 2.4564862 3.5884283e-39
1.1022884 -0.9998374 2.4644828 4.2327145e-39
1.1166524 -1.0037583 2.4741473 4.6007782e-39
1.1230237 -1.0004888 2.4660883 3.8642963e-39
1.1385957 -1.0054011 2.4781966 3.6799065e-39
1.1482776 -1.0050721 2.4773858 3.8642949e-39
1.1393187 -0.98857433 2.4367206 3.6802638e-39
1.1570284 -0.99530154 2.4533021 3.8642949e-39
1.1669852 -0.99530154 2.4533021 4.0486848e-39
1.175799 -0.99433488 2.4509196 4.1408776e-39
1.2100329 -1.0147012 2.5011201 4.1405189e-39
1.2262604 -1.0197545 2.513576 3.9561318e-39
1.2397547 -1.0224702 2.5202699 3.9561318e-39
1.245836 -1.0190778 2.5119081 4.2327159e-39
1.257282 -1.0200932 2.5144107 4.4163869e-39
1.2607872 -1.0147012 2.5011201 4.4167456e-39
1.2755735 -1.018402 2.5102422 4.5085811e-39
1.2849092 -1.0177271 2.5085788 4.7844505e-39
1.2959492 -1.018402 2.5102422 4.6926164e-39
1.2996732 -1.0133621 2.4978194 3.5884325e-39
1.3093787 -1.0130279 2.4969957 2.9441435e-39
1.3208197 -1.0140312 2.4994688 2.7604697e-39
1.3309639 -1.0140312 2.4994688 2.9445022e-39
1.339781 -1.0130279 2.4969957 3.2207276e-39
1.3393137 -1.0050721 2.4773858 3.4047573e-39
1.3489269 -1.0047433 2.4765754 3.6806239e-39
1.3541057 -1.001141 2.4676957 4.3252717e-39
-1.5388006 -0.99664825 2.4814458 1.6318265e-38
-1.5317419 -0.99861211 2.4863353 1.6317908e-38
-1.529184 -1.0035558 2.4986439 1.6595215e-38
-1.5286286 -1.0098884 2.5144107 1.6411542e-38
-1.5244995 -1.0139292 2.5244718 1.6781408e-38
-1.5218657 -1.019026 2.5371618 1.6781772e-38
-1.5202295 -1.0248648 2.5516989 1.6690654e-38
-1.5247768 -1.0349809 2.5768859 1.6967601e-38
-1.5273147 -1.0438633 2.5990014 1.6599183e-38
-1.5352123 -1.056558 2.6306083 1.5769787e-38
-1.5384341 -1.06619 2.6545901 1.4941464e-38
-1.5319576 -1.0691891 2.6620572 1.5402079e-38
-1.5308425 -1.0759993 2.679013 1.6046727e-38
-1.523744 -1.0786711 2.6856654 1.4942896e-38
-1.513381 -1.0790539 2.6866183 1.5310241e-38
-1.5148411 -1.0879334 2.7087266 1.5954173e-38
-1.5043859 -1.0883228 2.7096961 1.6137841e-38
-1.4998302 -1.0930172 2.7213843 1.65059e-38
-1.495775 -1.0981487 2.7341607 1.6782486e-38
-1.4938496 -1.1049323 2.7510505 1.678285e-38
-1.507889 -1.1237154 2.7978163 1.6506982e-38
-1.5241328 -1.1444387 2.8494132 1.6875046e-38
-1.5409871 -1.1659409 2.9029489 1.7151279e-38
-1.5374587 -1.1722336 2.9186163 1.7243837e-38
-1.5350819 -1.1795088 2.9367304 1.7152353e-38
-1.5539036 -1.2033137 2.9959996 1.715199e-38
-1.5534241 -1.2124298 3.0186965 1.7519696e-38
-1.5604607 -1.2276034 3.0564759 1.7426783e-38
-1.5555921 -1.2335796 3.0713553 1.7242751e-38
-1.5582989 -1.2457082 3.101553 1.7242389e-38
-1.5584804 -1.2559991 3.1271751 1.7057996e-38
-1.5567198 -1.264881 3.1492889 1.6964719e-38
-1.5575441 -1.2760277 3.1770418 1.6594502e-38
-1.5577236 -1.2868277 3.2039318 1.6036647e-38
-1.5506264 -1.2917476 3.2161813 1.5203999e-38
-1.5621268 -1.3123754 3.2675402 1.5297994e-38
-1.5630319 -1.3243788 3.2974262 1.594768e-38
-1.5639536 -1.3366039 3.3278642 1.539703e-38
-1.5704665 -1.3538619 3.3708329 1.456871e-38
-1.5686591 -1.3641875 3.3965414 1.4292125e-38
-1.5632902 -1.3715714 3.4149258 1.3922621e-38
-1.5628244 -1.3834276 3.4444454 1.2907028e-38
-1.5616336 -1.3948504 3.4728856 1.1801039e-38
-1.5575414 -1.4038661 3.4953327 9.8652953e-39
-1.5533959 -1.412999 3.5180719 1.0233718e-38
-1.5513729 -1.42425 3.5460846 1.06025e-38
-1.5456687 -1.4323004 3.5661285 1.0511023e-38
-1.5355351 -1.4363599 3.5762355 1.0510303e-38
-1.5304189 -1.4452348 3.5983322 9.404313e-39
-1.5355198 -1.464022 3.6451087 8.2054125e-39
-1.531046 -1.4739573 3.6698453 8.8507805e-39
-1.5717695 -1.5280271 3.8044677 9.3117572e-39
-1.5532069 -1.5249618 3.7968359 9.1277275e-39
-1.5581138 -1.5451087 3.8469973 9.3117586e-39
-1.5575379 -1.5601712 3.8845 9.219563e-39
-1.5521253 -1.5706476 3.910584 8.4834371e-39
-1.5426286 -1.5771649 3.9268105 8.4827168e-39
-1.5338516 -1.5845617 3.9452271 1.0602495e-38
-1.524194 -1.5911951 3.9617429 1.0878726e-38
-1.5096952 -1.5928621 3.9658935 1.0785811e-38
-1.4928175 -1.5920281 3.9638171 1.0601779e-38
-1.4837216 -1.5995654 3.9825833 1.050994e-38
-1.4075823 -1.5341947 3.8198237 1.0418106e-38
-1.4445558 -1.5920281 3.9638171 1.0325909e-38
-1.4151322 -1.5771649 3.9268105 1.0417385e-38
-1.2611725 -1.4215866 3.5394533 1.0417745e-38
-1.4276881 -1.6278232 4.0529394 1.0509224e-38
-1.6143262 -1.8620783 4.6361856 1.0049325e-38
0.90561312 -1.064324 2.6499443 1.1963443e-38
0.91797453 -1.06619 2.6545901 7.8211372e-39
0.92292333 -1.0595031 2.6379411 4.7848079e-39
0.93689394 -1.0632076 2.6471646 3.772458e-39
0.92436677 -1.0370989 2.5821593 3.2207262e-39
0.92725641 -1.0286785 2.5611944 2.7608284e-39
0.93480492 -1.0255561 2.5534201 2.8526625e-39
0.94230777 -1.0224526 2.5456929 4.1408804e-39
0.94912899 -1.0186847 2.5363119 4.4163883e-39
0.95430744 -1.0132536 2.5227892 4.3241913e-39
0.9597491 -1.0082141 2.5102422 4.3249087e-39
0.96705121 -1.0052145 2.5027738 4.5089385e-39
0.97559625 -1.0035558 2.4986439 4.9684747e-39
0.98606247 -1.0038871 2.4994688 7.178646e-39
0.99292856 -1.0005836 2.4912441 7.360522e-39
1.0036999 -1.0012426 2.4928846 4.6911745e-39
1.0138173 -1.0012426 2.4928846 3.6799037e-39
1.0182351 -0.99566925 2.4790082 3.404037e-39
1.0229369 -0.99048007 2.4660883 3.4962313e-39
1.0236098 -0.98152804 2.4437995 3.9564877e-39
1.0358686 -0.98375082 2.4493339 3.956129e-39
1.045133 -0.98311472 2.4477501 3.8639334e-39
1.0681909 -0.99534333 2.4781966 3.9561304e-39
1.0688027 -0.98662359 2.4564862 3.8642949e-39
1.0738943 -0.98216212 2.4453781 3.6806239e-39
1.085572 -0.98375082 2.4493339 3.6802638e-39
1.1001396 -0.98790574 2.4596786 4.2327145e-39
1.1148309 -0.99209589 2.4701111 4.2327159e-39
1.1208333 -0.98854804 2.461278 3.6802652e-39
1.1363639 -0.99339229 2.4733391 3.7721007e-39
1.1475266 -0.99436688 2.4757655 3.7720979e-39
1.138952 -0.97836995 2.4359365 3.6802638e-39
1.1577787 -0.98598373 2.4548934 3.8646536e-39
1.1647207 -0.98343265 2.4485416 3.9568493e-39
1.1738988 -0.98279697 2.4469588 4.1408804e-39
1.2048584 -1.0002545 2.4904246 4.3249115e-39
1.2246341 -1.0082141 2.5102422 3.9564891e-39
1.2368724 -1.0098884 2.5144107 3.9564891e-39
1.2470772 -1.0098884 2.5144107 4.2319956e-39
1.2560307 -1.0088831 2.5119081 4.5082224e-39
1.2624555 -1.0058795 2.5044296 4.6004152e-39
1.2772675 -1.0095531 2.513576 4.784089e-39
1.2870415 -1.009218 2.5127418 4.9681215e-39
1.2993959 -1.0108956 2.5169184 4.4163883e-39
1.3052715 -1.0075459 2.5085788 3.2203674e-39
1.313277 -1.0058795 2.5044296 2.5764386e-39
1.3212559 -1.0042186 2.5002942 2.7601096e-39
1.3314034 -1.0042186 2.5002942 3.0363377e-39
1.341108 -1.0038871 2.4994688 3.3125617e-39
1.3410691 -0.99632168 2.4806325 3.4962327e-39
1.3502519 -0.99566925 2.4790082 4.2330774e-39
1.3567591 -0.99306786 2.4725313 5.4312605e-39
-1.5377926 -0.98593092 2.47982 1.5851533e-38
-1.5317419 -0.98852122 2.4863353 1.4740864e-38
-1.5276715 -0.9924323 2.4961724 1.6035919e-38
-1.5266006 -0.9983573 2.5110748 1.7054759e-38
-1.5209495 -1.0013463 2.5185931 1.6964723e-38
-1.5167828 -1.0053598 2.5286877 1.678177e-38
-1.5146141 -1.0107613 2.5422735 1.6691012e-38
-1.5221863 -1.022782 2.5725079 1.6875766e-38
-1.5236533 -1.0308381 2.5927708 1.5954897e-38
-1.5341461 -1.0451553 2.6287816 1.4574485e-38
-1.5384341 -1.0554162 2.6545901 1.4113145e-38
-1.5341153 -1.0598757 2.6658065 1.5310604e-38
-1.5330124 -1.0666361 2.6828103 1.6231481e-38
-1.5248258 -1.0685294 2.6875722 1.4391524e-38
-1.5123076 -1.0673926 2.6847131 1.4206053e-38
-1.5126762 -1.0754009 2.7048557 1.5402075e-38
-1.5033098 -1.0765548 2.7077577 1.5769416e-38
-1.4987527 -1.0811951 2.7194293 1.6229672e-38
-1.4930789 -1.0850927 2.7292325 1.6966521e-38
-1.4905999 -1.0913876 2.7450655 1.6966883e-38
-1.5001278 -1.106635 2.7834158 1.6691372e-38
-1.5150098 -1.1260933 2.8323572 1.6690653e-38
-1.5327591 -1.1479967 2.8874488 1.6689937e-38
-1.5216206 -1.1484346 2.8885505 1.7150916e-38
-1.5226784 -1.1581559 2.9130015 1.7243828e-38
-1.5545187 -1.191626 2.9971855 1.7243828e-38
-1.5602674 -1.2054654 3.0319948 1.724383e-38
-1.5636169 -1.2176566 3.0626581 1.7336027e-38
-1.5574876 -1.2226025 3.0750978 1.7151634e-38
-1.5608567 -1.2351445 3.1066437 1.6875047e-38
-1.5655938 -1.2489822 3.1414485 1.6782131e-38
-1.5619175 -1.2562802 3.1598041 1.6598096e-38
-1.5660876 -1.2700621 3.1944687 1.6781408e-38
-1.5610268 -1.2765255 3.2107255 1.6871444e-38
-1.5545888 -1.2819622 3.2243998 1.622283e-38
-1.5655051 -1.3019235 3.2746067 1.5019609e-38
-1.5623513 -1.3104254 3.2959907 1.4466068e-38
-1.5618939 -1.3213552 3.3234816 1.4930645e-38
-1.5683717 -1.3383936 3.3663366 1.4934249e-38
-1.5679557 -1.3497969 3.3950183 1.4568706e-38
-1.5647018 -1.3589377 3.4180093 1.42914e-38
-1.5635357 -1.3700715 3.4460132 1.3460199e-38
-1.5645043 -1.3832937 3.4792697 1.2168746e-38
-1.5611451 -1.3928955 3.5034201 1.0233359e-38
-1.5584652 -1.4032854 3.5295527 9.4028795e-39
-1.5579404 -1.4158266 3.5610964 9.8660128e-39
-1.5515152 -1.4231901 3.5796175 1.0510306e-38
-1.5413599 -1.4272391 3.5898013 1.0510305e-38
-1.5377275 -1.4374628 3.6155162 1.0234434e-38
-1.5422025 -1.4555354 3.6609724 9.4972303e-39
-1.5377547 -1.4654562 3.6859255 8.3912415e-39
-1.5709801 -1.5118269 3.802557 8.299406e-39
-1.5555472 -1.5118269 3.802557 9.3113999e-39
-1.5557423 -1.5271676 3.8411419 9.4039528e-39
-1.559939 -1.5467868 3.8904886 9.4035941e-39
-1.5569506 -1.5596099 3.9227414 8.6671081e-39
-1.5490563 -1.5677329 3.9431722 8.2064901e-39
-1.5386626 -1.5734695 3.9576011 1.0509939e-38
-1.5281924 -1.5792483 3.9721358 1.0694692e-38
-1.5144551 -1.5817379 3.9783976 1.0602137e-38
-1.4967357 -1.5800773 3.974221 1.060214e-38
-1.4884194 -1.5884154 3.995193 1.0510662e-38
-1.4175956 -1.5294955 3.8469973 1.0326271e-38
-1.4536889 -1.5859047 3.9888783 1.0418106e-38
-1.4344767 -1.5825695 3.9804893 1.032555e-38
-1.2907407 -1.4402139 3.6224358 1.0418106e-38
-1.4369189 -1.6217927 4.0791435 1.0232996e-38
-1.6074358 -1.8353946 4.6163969 1.0141519e-38
0.88956511 -1.0473372 2.6342695 1.3985977e-38
0.90182525 -1.0491625 2.6388605 1.0490476e-38
0.91380918 -1.0506272 2.6425447 7.0860917e-39
0.92163885 -1.0473372 2.6342695 5.6131266e-39
0.93460643 -1.0498943 2.6407013 4.4163869e-39
0.92499775 -1.0273199 2.5839217 3.1288893e-39
0.92977273 -1.0210472 2.5681448 2.6686328e-39
0.9376511 -1.0182838 2.5611944 2.8526625e-39
0.94389468 -1.0138253 2.5499802 4.140879e-39
0.94944704 -1.008729 2.5371618 4.4163869e-39
0.95526236 -1.0040184 2.5253139 4.3245528e-39
0.96038598 -0.99868852 2.5119081 4.4163841e-39
0.96865231 -0.99670434 2.5069175 4.4160268e-39
0.97688586 -0.99472809 2.5019467 5.3368985e-39
0.98704004 -0.99472809 2.5019467 7.5474258e-39
0.99456489 -0.99210519 2.4953496 6.6243975e-39
1.0053551 -0.99275964 2.4969957 4.3238311e-39
1.0144854 -0.99177831 2.4945273 3.5884283e-39
1.0182351 -0.9856081 2.4790082 3.4043972e-39
1.0229369 -0.98047137 2.4660883 3.6802638e-39
1.024271 -0.97223747 2.4453781 4.0486862e-39
1.0348642 -0.97286594 2.4469588 3.9561318e-39
1.0478432 -0.97570413 2.4540975 3.9561304e-39
1.0664455 -0.98367554 2.4741473 4.0486848e-39
1.0646573 -0.97286594 2.4469588 3.9561304e-39
1.06906 -0.96786082 2.43437 3.5880682e-39
1.0792869 -0.96817213 2.435153 3.5884269e-39
1.09198 -0.97066987 2.4414353 4.1405203e-39
1.1076034 -0.97570413 2.4540975 4.1401615e-39
1.1146728 -0.97318047 2.4477501 3.7724594e-39
1.1297206 -0.97760546 2.4588797 3.8642949e-39
1.1415538 -0.97919559 2.4628792 3.6802624e-39
1.1371228 -0.96692812 2.432024 3.6802638e-39
1.1559048 -0.97444063 2.4509196 3.6802638e-39
1.1620898 -0.97129631 2.4430108 3.8650138e-39
1.1777053 -0.97602051 2.4548934 4.0486848e-39
1.2048584 -0.99014711 2.4904246 4.4163883e-39
1.2332208 -1.0050241 2.5278432 4.1398014e-39
1.238106 -1.0006806 2.5169184 4.0479645e-39
1.2541581 -1.0053598 2.5286877 4.231997e-39
1.2576997 -1.0000157 2.5152462 4.5082196e-39
1.2653856 -0.99802625 2.5102422 4.6922521e-39
1.2798169 -1.0013463 2.5185931 4.9681201e-39
1.289181 -1.0006806 2.5169184 4.784089e-39
1.3011261 -1.0020131 2.5202699 3.9564905e-39
1.3096108 -1.0006806 2.5169184 2.6682741e-39
1.3171985 -0.99868852 2.5119081 2.4842429e-39
1.3230036 -0.995386 2.5036016 2.7601096e-39
1.3318433 -0.99439949 2.5011201 3.1285319e-39
1.3433255 -0.995386 2.5036016 3.7735412e-39
1.3419485 -0.98690075 2.4822593 4.8791671e-39
1.3511368 -0.98625398 2.4806325 6.1695458e-39
1.3585337 -0.98431891 2.4757655 7.1836949e-39
-1.5433533 -0.97939533 2.4887872 1.64987e-38
-1.5372953 -0.98197776 2.4953496 1.5016012e-38
-1.5322181 -0.98522502 2.5036016 1.4925245e-38
-1.5316808 -0.99145442 2.5194311 1.686784e-38
-1.5250081 -0.99376935 2.5253139 1.7240228e-38
-1.5208465 -0.9977631 2.5354624 1.6781405e-38
-1.5192055 -1.0034761 2.5499802 1.6874683e-38
-1.5263354 -1.0151007 2.5795197 1.6599541e-38
-1.5257434 -1.0217148 2.5963275 1.5679029e-38
-1.5352123 -1.0352052 2.6306083 1.3746524e-38
-1.537895 -1.0442764 2.6536596 1.4113867e-38
-1.5330358 -1.0483183 2.6639307 1.6230765e-38
-1.5292192 -1.0531355 2.676172 1.6783937e-38
-1.5226637 -1.0561222 2.6837614 1.4759592e-38
-1.5101656 -1.0550002 2.6809103 1.3837989e-38
-1.5094407 -1.0621463 2.6990697 1.503365e-38
-1.5033098 -1.0655652 2.7077577 1.5770495e-38
-1.4982146 -1.069774 2.7184527 1.5952726e-38
-1.4936174 -1.0744034 2.7302167 1.6598097e-38
-1.4879024 -1.0782919 2.740098 1.6966884e-38
-1.4913552 -1.088933 2.7671385 1.7059078e-38
-1.5043168 -1.1067313 2.8123665 1.696724e-38
-1.5119994 -1.1208881 2.8483412 1.6966162e-38
-1.5106696 -1.1285305 2.8677616 1.6966165e-38
-1.5104736 -1.1371453 2.889653 1.7243111e-38
-1.5588386 -1.1827394 3.0055144 1.7243111e-38
-1.5754095 -1.2047395 3.0614197 1.7427143e-38
-1.5706059 -1.2106138 3.0763474 1.7427499e-38
-1.5619285 -1.2135725 3.0838659 1.7243107e-38
-1.5634228 -1.2245461 3.1117513 1.6966522e-38
-1.5708081 -1.2403499 3.1519113 1.6782133e-38
-1.5704383 -1.2502394 3.1770418 1.6782131e-38
-1.5634489 -1.2549791 3.1890862 1.6782127e-38
-1.5537784 -1.257628 3.1958172 1.6597378e-38
-1.5473398 -1.2629591 3.2093644 1.6412982e-38
-1.558763 -1.2830838 3.2605042 1.6226427e-38
-1.5623513 -1.2970486 3.2959907 1.5575298e-38
-1.5618939 -1.3078668 3.3234816 1.4743735e-38
-1.5746732 -1.3300538 3.3798621 1.4376752e-38
-1.572893 -1.3402252 3.4057088 1.4750211e-38
-1.571798 -1.3511658 3.4335105 1.4107008e-38
-1.5742841 -1.3654082 3.4697025 1.336764e-38
-1.5739071 -1.3774019 3.5001807 1.2814111e-38
-1.5705934 -1.3870207 3.5246232 1.1524457e-38
-1.5635678 -1.3935082 3.5411088 1.0140803e-38
-1.5623497 -1.4053398 3.5711749 8.575274e-39
-1.5551918 -1.4120003 3.5881 9.0362563e-39
-1.5442888 -1.4153541 3.5966227 1.0233718e-38
-1.5399337 -1.4248304 3.6207035 1.0234435e-38
-1.5459402 -1.4441689 3.6698453 1.0050403e-38
-1.5392534 -1.4519106 3.689518 9.4057549e-39
-1.5741426 -1.4994065 3.8102117 8.2986885e-39
-1.5555472 -1.496394 3.802557 8.573116e-39
-1.5573225 -1.5131135 3.8450437 9.403234e-39
-1.559939 -1.5309972 3.8904886 9.4039542e-39
-1.5569506 -1.5436894 3.9227414 8.7593037e-39
-1.5506716 -1.5533475 3.947284 8.2064873e-39
-1.5402728 -1.5590374 3.9617429 1.0509936e-38
-1.5297977 -1.5647691 3.9763081 1.0878721e-38
-1.5144551 -1.5655915 3.9783976 1.069433e-38
-1.4951659 -1.5623076 3.970053 1.0694689e-38
-1.4852842 -1.5688891 3.9867775 1.0694692e-38
-1.405455 -1.5009172 3.8140507 1.0418462e-38
-1.4475874 -1.5631273 3.9721358 1.0509942e-38
-1.4078301 -1.537317 3.9065485 1.0325906e-38
-1.2700791 -1.4026933 3.5644495 1.0234074e-38
-1.3890216 -1.5517294 3.9431722 1.0325552e-38
-1.6222737 -1.833428 4.6590099 1.0141519e-38
0.8779574 -1.035565 2.6315227 1.7492651e-38
0.88863748 -1.035565 2.6315227 1.3526801e-38
0.90056968 -1.0370069 2.6351864 8.8334772e-39
0.9122172 -1.0380908 2.6379411 6.2559709e-39
0.92195964 -1.0370069 2.6351864 4.8755644e-39
0.93428057 -1.0388147 2.6397805 3.9561304e-39
0.92594582 -1.0178752 2.58657 3.3129204e-39
0.93230271 -1.0133743 2.5751328 2.9444994e-39
0.94051462 -1.0109673 2.5690162 2.7604669e-39
0.94516808 -1.0048299 2.5534201 3.9568465e-39
0.94944704 -0.9984318 2.5371618 4.6922535e-39
0.95494384 -0.99343801 2.5244718 4.2323572e-39
0.96070468 -0.98882192 2.5127418 4.1401601e-39
0.96929419 -0.98718375 2.5085788 4.4160282e-39
0.97688586 -0.98457384 2.5019467 6.0726628e-39
0.98736638 -0.98489934 2.5027738 7.8225749e-39
0.99522096 -0.98262548 2.4969957 5.7038817e-39
1.0060186 -0.9832741 2.4986439 4.1401601e-39
1.0151544 -0.98230153 2.4961724 3.4965928e-39
1.0182351 -0.97554702 2.4790082 3.4043972e-39
1.0216058 -0.9691999 2.4628792 3.6802638e-39
1.0239403 -0.9620021 2.4445887 3.9561318e-39
1.0351988 -0.96324623 2.4477501 3.8642949e-39
1.0502263 -0.96794039 2.4596786 3.9564905e-39
1.067143 -0.97427094 2.4757655 4.048326e-39
1.0650016 -0.96324623 2.4477501 3.9564905e-39
1.06906 -0.95798087 2.43437 3.4965914e-39
1.0765169 -0.9558295 2.4289031 3.49659e-39
1.0870721 -0.95644319 2.4304626 3.9568493e-39
1.1033118 -0.9620021 2.4445887 4.0483246e-39
1.1139525 -0.96262378 2.4461682 4.1401615e-39
1.1289873 -0.96699792 2.4572835 3.8642949e-39
1.1411825 -0.96888471 2.4620783 3.5884283e-39
1.1363926 -0.95644319 2.4304626 3.5884297e-39
1.1566536 -0.96511841 2.4525075 3.6802666e-39
1.1639678 -0.96293491 2.4469588 3.7724594e-39
1.1811522 -0.96888471 2.4620783 4.048326e-39
1.2076392 -0.98230153 2.4961724 4.4163883e-39
1.2390125 -0.99943662 2.5397151 4.231997e-39
1.2397547 -0.99178445 2.5202699 3.9561304e-39
1.2579396 -0.99809736 2.5363119 4.3245514e-39
1.2606314 -0.99211472 2.5211091 4.4163869e-39
1.268751 -0.99046558 2.5169184 4.7840904e-39
1.2836602 -0.99410093 2.5261564 4.9681201e-39
1.2939126 -0.99410093 2.5261564 4.6922535e-39
1.3050361 -0.9947648 2.5278432 3.4962355e-39
1.3139791 -0.99376935 2.5253139 2.3924088e-39
1.3224638 -0.99244523 2.5219491 2.4849632e-39
1.3273932 -0.98849386 2.5119081 3.1288935e-39
1.3331646 -0.98522502 2.5036016 3.958294e-39
1.3473353 -0.98816603 2.5110748 5.3412271e-39
1.344152 -0.97843039 2.4863353 6.53905e-39
1.3537983 -0.97810918 2.4855189 6.999668e-39
1.3612045 -0.97618628 2.4806325 7.55176e-39
-1.5403152 -0.96738642 2.4838881 1.6776365e-38
-1.5357767 -0.97089028 2.4928846 1.6032678e-38
-1.5306995 -0.97409773 2.5011201 1.5847563e-38
-1.5301532 -0.9802506 2.5169184 1.6683087e-38
-1.5244995 -0.98319238 2.5244718 1.7055477e-38
